# .PCD v0.7 - Point Cloud Data file format
VERSION 0.7
FIELDS x y z
SIZE 4 4 4
TYPE F F F
COUNT 1 1 1
WIDTH 1509
HEIGHT 1
VIEWPOINT 0 0 0 1 0 0 0
POINTS 1509
DATA ascii
114.24779 -48.0784 -1044.4027
114.40876 -48.087265 -1045.7885
114.42997 -48.072826 -1047.4323
114.42372 -48.08337 -1051.1581
114.51399 -48.054028 -1053.1897
54.401695 -55.747974 -1024.0657
55.249153 -55.633198 -1023.4
56.119553 -55.502106 -1022.7212
56.867531 -55.3759 -1022.198
57.721855 -55.232239 -1021.5456
58.611 -55.101322 -1020.8971
59.257221 -55.023212 -1020.5552
60.042587 -54.918465 -1020.0707
60.820168 -54.797241 -1019.6381
61.614124 -54.694172 -1019.1838
62.228775 -54.594677 -1018.939
62.849293 -54.53244 -1018.7268
63.536003 -54.420734 -1018.3893
64.29882 -54.326744 -1018.0005
64.947517 -54.250153 -1017.7582
65.583717 -54.13987 -1017.509
66.401863 -54.023399 -1017.0652
67.035141 -53.941704 -1016.8779
67.566544 -53.860622 -1016.8538
68.469131 -53.725933 -1016.3476
69.036385 -53.655163 -1016.2689
69.573219 -53.605446 -1016.2103
70.164566 -53.499214 -1016.0938
70.813927 -53.421856 -1015.9281
71.337456 -53.341866 -1015.8943
72.154472 -53.207951 -1015.5086
72.730766 -53.148506 -1015.4404
73.345863 -53.062374 -1015.3513
73.947624 -52.961605 -1015.2809
74.633606 -52.894848 -1015.133
75.183495 -52.794567 -1015.1086
75.842155 -52.710102 -1014.9736
76.313812 -52.617741 -1015.061
77.036697 -52.538582 -1014.8455
77.50808 -52.480423 -1014.9545
78.060989 -52.409214 -1014.9609
78.750008 -52.296803 -1014.7818
79.336021 -52.212063 -1014.7664
79.933334 -52.144547 -1014.7899
80.522911 -52.046352 -1014.7834
80.883385 -52.001431 -1015.0757
81.574455 -51.906483 -1014.9313
82.025787 -51.827705 -1015.1121
82.567421 -51.757175 -1015.1646
83.18615 -51.684708 -1015.1332
83.727264 -51.60461 -1015.2108
84.209702 -51.535313 -1015.3506
84.862 -51.458416 -1015.2985
85.365494 -51.390179 -1015.4849
85.825615 -51.293861 -1015.6913
86.486816 -51.212418 -1015.6501
87.033623 -51.139614 -1015.7224
87.537689 -51.080414 -1015.8831
88.026566 -51.014626 -1016.049
88.54335 -50.93652 -1016.1821
88.881416 -50.883987 -1016.5433
89.565697 -50.801861 -1016.4615
89.93605 -50.760521 -1016.8505
90.670151 -50.631901 -1016.7591
91.083694 -50.588959 -1017.1017
91.672791 -50.516445 -1017.1688
92.074913 -50.446457 -1017.5027
92.60154 -50.4035 -1017.6862
93.118179 -50.304863 -1017.8626
93.464035 -50.276814 -1018.2839
94.117355 -50.171806 -1018.2753
94.464333 -50.126694 -1018.6891
95.069145 -50.031208 -1018.8038
95.661774 -49.964436 -1018.9401
96.048233 -49.909168 -1019.3654
96.680511 -49.821735 -1019.4352
97.025597 -49.769855 -1019.8786
97.607712 -49.681686 -1020.0078
98.088707 -49.638378 -1020.2947
98.570297 -49.564682 -1020.5751
99.041496 -49.505623 -1020.9015
99.312996 -49.472061 -1021.4645
99.722603 -49.398323 -1021.8778
100.3951 -49.315948 -1021.9913
100.78386 -49.283573 -1022.4587
101.25705 -49.217529 -1022.8036
101.94572 -49.119053 -1022.8384
102.23404 -49.067204 -1023.4533
102.47951 -49.049946 -1024.1466
103.04343 -48.960163 -1024.3785
103.51902 -48.906757 -1024.7776
103.89931 -48.86161 -1025.2379
104.47019 -48.760643 -1025.4962
104.95709 -48.703247 -1025.9299
105.40285 -48.64415 -1026.4286
105.70058 -48.60355 -1027.0985
106.10596 -48.557659 -1027.5819
106.65907 -48.467857 -1027.8995
106.9493 -48.44474 -1028.6001
107.22356 -48.401501 -1029.3146
107.77731 -48.328117 -1029.6599
108.19284 -48.278427 -1030.1926
108.71832 -48.162876 -1030.6014
109.08163 -48.130276 -1031.3143
109.50433 -48.092937 -1031.9038
109.8074 -48.038799 -1032.7047
110.1141 -47.988319 -1033.4589
110.71137 -47.947651 -1033.8477
111.15359 -47.887783 -1034.4349
111.21717 -47.874332 -1035.6254
111.54162 -47.820049 -1036.4288
112.06478 -47.741806 -1036.9486
112.26327 -47.731144 -1037.994
112.72269 -47.646194 -1038.7587
113.09906 -47.605942 -1039.6301
113.09586 -47.576866 -1041.0413
113.80573 -47.536953 -1041.4907
114.05389 -47.5009 -1042.5977
114.13016 -47.481865 -1043.9965
114.84919 -47.394772 -1044.4937
114.51134 -47.447666 -1046.7166
114.57004 -47.450855 -1048.327
114.94961 -47.417595 -1049.5764
115.76257 -47.28698 -1050.5553
53.778763 -55.304562 -1024.1273
54.593723 -55.167652 -1023.4621
55.437885 -55.041199 -1022.7698
56.193455 -54.938103 -1022.2297
56.993244 -54.815994 -1021.665
57.696926 -54.697025 -1021.2183
58.559532 -54.589886 -1020.6104
59.21143 -54.485588 -1020.2606
59.932762 -54.378426 -1019.8611
60.818035 -54.26284 -1019.3035
61.614567 -54.16143 -1018.8505
62.3601 -54.054256 -1018.4568
62.919407 -53.971268 -1018.2787
63.594139 -53.890823 -1017.9999
64.462761 -53.765835 -1017.4668
65.060005 -53.693874 -1017.2992
65.746872 -53.576462 -1016.9932
66.407852 -53.488983 -1016.7369
67.061554 -53.397793 -1016.5297
67.810547 -53.299088 -1016.2476
68.416985 -53.218521 -1016.1127
69.073662 -53.114948 -1015.9036
69.640633 -53.032032 -1015.8093
70.243607 -52.955406 -1015.6941
70.94883 -52.861732 -1015.4467
71.567787 -52.77499 -1015.3022
72.240944 -52.680679 -1015.0953
72.74292 -52.607513 -1015.1132
73.521591 -52.498444 -1014.8251
74.056816 -52.433079 -1014.8694
74.710068 -52.3223 -1014.7291
75.317245 -52.247559 -1014.6531
75.873856 -52.172195 -1014.613
76.260353 -52.129272 -1014.8403
76.925827 -52.035858 -1014.6902
77.489182 -51.961021 -1014.6849
78.04808 -51.857185 -1014.6622
78.681641 -51.791233 -1014.5701
79.292999 -51.69751 -1014.5441
79.919579 -51.596558 -1014.5024
80.41909 -51.526093 -1014.6351
81.036499 -51.448158 -1014.5944
81.59021 -51.372925 -1014.6223
82.174622 -51.309631 -1014.6278
82.631752 -51.226357 -1014.7883
83.172325 -51.164959 -1014.8747
83.748787 -51.078766 -1014.896
84.228271 -51.021927 -1015.0326
84.862419 -50.920475 -1014.9999
85.412552 -50.856911 -1015.1193
85.94857 -50.7668 -1015.2375
86.481407 -50.694389 -1015.3594
86.980865 -50.625111 -1015.4905
87.558403 -50.539143 -1015.5321
88.1315 -50.488644 -1015.6121
88.627403 -50.425327 -1015.7929
88.978745 -50.361961 -1016.1339
89.512024 -50.273663 -1016.244
89.993103 -50.222073 -1016.4902
90.697868 -50.115452 -1016.4324
91.227272 -50.037022 -1016.61
91.686859 -49.989185 -1016.8609
92.068436 -49.91518 -1017.1935
92.777824 -49.833439 -1017.1266
93.183395 -49.786171 -1017.4565
93.617188 -49.718243 -1017.7531
94.083031 -49.652538 -1018.0222
94.490837 -49.615086 -1018.3558
95.08606 -49.516277 -1018.4744
95.698235 -49.432163 -1018.5932
96.039276 -49.392815 -1019.0627
96.665466 -49.30814 -1019.1624
97.143738 -49.236694 -1019.4122
97.544754 -49.189102 -1019.7961
98.092262 -49.108398 -1019.963
98.616013 -49.042465 -1020.2036
98.914642 -48.999863 -1020.7367
99.331665 -48.936325 -1021.1068
99.965942 -48.845825 -1021.2323
100.4408 -48.772598 -1021.5807
100.85544 -48.72665 -1022.0398
101.29237 -48.67345 -1022.4154
101.74663 -48.609482 -1022.7792
102.32275 -48.5378 -1023.0215
102.5729 -48.490124 -1023.6788
102.99373 -48.42968 -1024.1051
103.6029 -48.339035 -1024.2894
103.89043 -48.323524 -1024.9301
104.59624 -48.222466 -1024.9871
104.90012 -48.176643 -1025.6769
105.19701 -48.135414 -1026.3427
105.73372 -48.09338 -1026.6925
106.10828 -48.012699 -1027.214
106.69751 -47.928165 -1027.5002
106.85744 -47.904408 -1028.3809
107.46422 -47.819096 -1028.6171
107.78061 -47.798019 -1029.3044
108.07588 -47.776508 -1029.9707
108.80216 -47.657818 -1030.1217
108.99858 -47.611877 -1031.0892
109.40383 -47.56657 -1031.6777
109.69044 -47.514973 -1032.475
110.14445 -47.472965 -1033.0317
110.53967 -47.418121 -1033.6984
110.92561 -47.346657 -1034.3467
111.48284 -47.291252 -1034.8428
111.8385 -47.245491 -1035.6133
112.24834 -47.171177 -1036.2765
112.23564 -47.184711 -1037.5892
112.51443 -47.156307 -1038.6359
113.16684 -47.067505 -1039.0936
113.54608 -47.008896 -1039.9709
113.75872 -47.017029 -1041.1144
114.34345 -46.912861 -1041.7449
114.49062 -46.867043 -1042.9189
114.64029 -46.867592 -1044.2725
114.88963 -46.8382 -1045.5475
115.11772 -46.837814 -1046.8636
115.10895 -46.828106 -1048.7021
114.83404 -46.906704 -1051.2024
114.72774 -46.926075 -1055.8575
52.849968 -54.897694 -1024.5
54.781864 -54.639954 -1022.8711
55.628883 -54.520546 -1022.2
56.380444 -54.417469 -1021.6642
57.146553 -54.298489 -1021.1302
57.95248 -54.170403 -1020.5708
58.557178 -54.083916 -1020.2766
59.392506 -53.948597 -1019.7007
60.149975 -53.840466 -1019.2664
60.975872 -53.733986 -1018.7645
61.710003 -53.618755 -1018.4035
62.479908 -53.52161 -1017.9794
63.072002 -53.46249 -1017.7944
63.815777 -53.332794 -1017.3976
64.482178 -53.255711 -1017.1226
65.165031 -53.153362 -1016.8525
65.739326 -53.060863 -1016.6868
66.396576 -52.967247 -1016.4342
67.234436 -52.859425 -1016.0261
67.7491 -52.787148 -1016.0325
68.373535 -52.681873 -1015.8588
69.189629 -52.575119 -1015.4713
69.687378 -52.500862 -1015.4563
70.352966 -52.441494 -1015.27
70.952721 -52.351936 -1015.15
71.638054 -52.250328 -1014.9189
72.186096 -52.164497 -1014.892
72.79303 -52.101391 -1014.7742
73.437431 -52.00618 -1014.6438
74.028313 -51.918869 -1014.6088
74.740685 -51.803844 -1014.4052
75.356926 -51.727081 -1014.326
75.947685 -51.649563 -1014.2513
76.517593 -51.587749 -1014.2269
77.132309 -51.477386 -1014.1417
77.524277 -51.422661 -1014.3428
78.130142 -51.336212 -1014.294
78.734978 -51.254784 -1014.2142
79.292389 -51.181641 -1014.2472
79.90757 -51.087181 -1014.2369
80.523834 -50.999989 -1014.2008
81.154472 -50.920448 -1014.1416
81.653641 -50.868824 -1014.263
82.269196 -50.760803 -1014.2248
82.772331 -50.724663 -1014.3481
83.302658 -50.627319 -1014.4196
83.849281 -50.553974 -1014.471
84.28196 -50.494743 -1014.6862
85.01828 -50.406296 -1014.5273
85.460388 -50.323597 -1014.7781
85.980698 -50.263195 -1014.9205
86.567467 -50.184334 -1014.9652
86.953011 -50.126472 -1015.2299
87.391968 -50.071587 -1015.4627
87.98835 -49.977402 -1015.5058
88.581451 -49.914082 -1015.5456
89.094391 -49.831261 -1015.6982
89.594879 -49.768761 -1015.8281
90.068893 -49.694714 -1016.0929
90.78167 -49.610359 -1016.0452
91.108276 -49.558498 -1016.4719
91.716881 -49.462444 -1016.5175
92.200668 -49.39954 -1016.7409
92.887566 -49.299129 -1016.6962
93.214645 -49.270081 -1017.1437
93.695183 -49.212189 -1017.342
94.233543 -49.113075 -1017.5158
94.704399 -49.078472 -1017.7809
95.154831 -48.992661 -1018.0763
95.68573 -48.940857 -1018.3199
96.1306 -48.87582 -1018.6494
96.811882 -48.75663 -1018.6531
97.203438 -48.712486 -1019.0336
97.664078 -48.646725 -1019.3235
98.109665 -48.594257 -1019.6437
98.467239 -48.537556 -1020.1097
99.032791 -48.483257 -1020.2792
99.554459 -48.386284 -1020.4881
99.921257 -48.345985 -1020.9847
100.36254 -48.275883 -1021.4053
101.00994 -48.181801 -1021.5285
101.46951 -48.106556 -1021.8418
101.85234 -48.084991 -1022.3378
102.28933 -48.038181 -1022.7497
102.6296 -47.964531 -1023.2775
103.07699 -47.915466 -1023.6646
103.57874 -47.833824 -1023.9869
103.93969 -47.797367 -1024.5212
104.44028 -47.744713 -1024.9083
105.04405 -47.651443 -1025.1448
105.37167 -47.616066 -1025.7944
105.88334 -47.549599 -1026.1571
106.25318 -47.490189 -1026.6763
106.82082 -47.409302 -1026.9995
106.94347 -47.380001 -1027.8987
107.31917 -47.329086 -1028.4949
107.66782 -47.269241 -1029.0903
108.25977 -47.216446 -1029.3607
108.58837 -47.171967 -1030.0878
109.2692 -47.080772 -1030.3337
109.42044 -47.054073 -1031.3221
109.7811 -47.008453 -1031.9939
110.35243 -46.923199 -1032.3628
110.68919 -46.870262 -1033.0963
111.11301 -46.817822 -1033.7327
111.41472 -46.759712 -1034.5508
111.60779 -46.764362 -1035.5563
112.09713 -46.689583 -1036.1218
112.20159 -46.668137 -1037.2588
112.82137 -46.599335 -1037.7358
113.23823 -46.543522 -1038.563
113.40821 -46.512428 -1039.7273
114.09283 -46.41217 -1040.156
114.15977 -46.379539 -1041.4838
114.4354 -46.385616 -1042.5698
114.27073 -46.361923 -1044.2661
114.78209 -46.328995 -1045.1626
115.10918 -46.303947 -1046.309
115.31705 -46.253208 -1047.7906
115.02279 -46.334286 -1050.1985
115.25227 -46.291775 -1051.8882
115.33686 -46.264969 -1053.8422
53.922344 -54.17234 -1023.1511
54.94038 -54.067665 -1022.2947
55.674377 -53.947559 -1021.7578
56.430649 -53.816345 -1021.223
57.263424 -53.70969 -1020.6318
58.024158 -53.586021 -1020.1288
58.705093 -53.505905 -1019.7487
59.47364 -53.404861 -1019.2648
60.232925 -53.287655 -1018.8217
61.077072 -53.208145 -1018.3401
61.78904 -53.106346 -1017.9872
62.622566 -52.978519 -1017.4935
63.315334 -52.871723 -1017.1674
63.96394 -52.773968 -1016.9039
64.526993 -52.701759 -1016.7602
65.243713 -52.598091 -1016.4294
65.841125 -52.524166 -1016.2596
66.531876 -52.433872 -1015.9623
67.155571 -52.339504 -1015.8207
67.883133 -52.234344 -1015.5577
68.687851 -52.120052 -1015.1729
69.179718 -52.057331 -1015.173
69.866165 -51.969688 -1014.9339
70.467613 -51.888489 -1014.8176
71.111931 -51.812859 -1014.6626
71.547424 -51.733776 -1014.7543
72.177528 -51.634605 -1014.5802
72.907944 -51.543259 -1014.3306
73.506226 -51.447609 -1014.2616
74.130333 -51.382813 -1014.1804
74.68045 -51.325253 -1014.2156
75.34613 -51.217606 -1014.0457
75.985756 -51.120094 -1013.9166
76.580666 -51.025063 -1013.8502
77.130692 -50.953384 -1013.853
77.627609 -50.894154 -1013.9462
78.257225 -50.800404 -1013.841
78.765221 -50.699471 -1013.8674
79.364159 -50.648083 -1013.8568
79.836357 -50.58799 -1014.0564
80.585045 -50.471386 -1013.8343
81.146172 -50.402321 -1013.8563
81.664673 -50.350693 -1013.9449
82.329926 -50.238148 -1013.8585
82.816345 -50.190079 -1013.996
83.253555 -50.10466 -1014.1667
83.702232 -50.034855 -1014.373
84.301231 -49.964855 -1014.3598
84.886467 -49.890633 -1014.3984
85.531265 -49.798462 -1014.3977
85.976288 -49.753349 -1014.6467
86.547279 -49.668652 -1014.6877
87.170753 -49.588757 -1014.6674
87.59024 -49.524899 -1014.9296
87.969795 -49.461437 -1015.2356
88.563721 -49.373859 -1015.2571
89.182373 -49.296196 -1015.2757
89.697868 -49.208786 -1015.3849
90.178329 -49.147617 -1015.6462
90.867928 -49.076004 -1015.6236
91.212059 -49.022476 -1016.0493
91.732452 -48.942818 -1016.1973
92.206047 -48.864536 -1016.4142
92.699219 -48.819569 -1016.6536
93.295616 -48.743866 -1016.7192
93.788681 -48.684803 -1016.9305
94.141212 -48.621849 -1017.3558
94.78479 -48.515629 -1017.3544
95.264854 -48.461567 -1017.6293
95.755287 -48.392445 -1017.9092
96.248878 -48.331551 -1018.1843
96.603821 -48.27103 -1018.6086
97.17569 -48.19791 -1018.765
97.664474 -48.116154 -1019.0181
98.164108 -48.051769 -1019.2607
98.539314 -48.023621 -1019.684
98.974419 -47.945026 -1020.0296
99.561996 -47.846287 -1020.1492
100.06593 -47.787796 -1020.4697
100.5219 -47.717983 -1020.8747
101.06081 -47.641537 -1021.1266
101.40595 -47.605183 -1021.663
101.76423 -47.549835 -1022.1118
102.19965 -47.492405 -1022.5182
102.80772 -47.423744 -1022.7206
103.11935 -47.387844 -1023.2654
103.51171 -47.323994 -1023.7673
104.16594 -47.239094 -1023.8931
104.58976 -47.185955 -1024.3344
104.94766 -47.127251 -1024.9353
105.52787 -47.063274 -1025.2267
105.77678 -47.029339 -1025.9719
106.27196 -46.962276 -1026.3235
106.76985 -46.888767 -1026.7216
107.20599 -46.845287 -1027.2026
107.45729 -46.80706 -1027.9546
107.94878 -46.730705 -1028.3566
108.20435 -46.679436 -1029.0769
108.80459 -46.586666 -1029.4053
109.04514 -46.584679 -1030.288
109.67382 -46.498714 -1030.5647
109.87903 -46.429649 -1031.4755
110.24225 -46.412071 -1032.1715
110.88186 -46.301346 -1032.4304
111.16366 -46.250355 -1033.2599
111.48634 -46.229198 -1034.0356
111.84123 -46.184639 -1034.8356
112.13528 -46.145325 -1035.6146
112.59422 -46.076393 -1036.2451
113.23338 -46.003944 -1036.7673
113.28178 -45.976608 -1038.0472
113.70956 -45.930172 -1038.8489
114.08687 -45.895119 -1039.7278
114.04848 -45.870667 -1041.1479
114.43054 -45.839272 -1042.0607
114.8287 -45.78241 -1043.0089
115.38425 -45.711113 -1043.792
114.79962 -45.796741 -1046.1746
115.13525 -45.760105 -1047.4835
116.1179 -45.67384 -1047.9274
115.6362 -45.677723 -1050.6064
116.33752 -45.581551 -1051.8058
53.183701 -53.809032 -1023.361
54.087112 -53.661137 -1022.6011
55.047306 -53.49955 -1021.7787
55.854267 -53.408955 -1021.1987
56.695015 -53.288803 -1020.5706
57.394695 -53.170506 -1020.1252
58.22197 -53.091022 -1019.572
58.877304 -52.961094 -1019.1962
59.61858 -52.874073 -1018.7641
60.361767 -52.772167 -1018.3664
61.086479 -52.653511 -1018.0013
61.7397 -52.556786 -1017.7207
62.68362 -52.440567 -1017.1154
63.222454 -52.367184 -1016.9929
63.902855 -52.284542 -1016.6874
64.563736 -52.188362 -1016.4161
65.142616 -52.110176 -1016.285
65.809433 -52.023773 -1016.0201
66.513535 -51.904522 -1015.6871
67.206711 -51.839554 -1015.4597
67.899727 -51.720974 -1015.2439
68.709465 -51.613705 -1014.8583
69.321823 -51.530861 -1014.7098
69.840622 -51.459564 -1014.671
70.425713 -51.37294 -1014.5845
71.088684 -51.293476 -1014.4061
71.74836 -51.176765 -1014.1892
72.205498 -51.125725 -1014.2651
72.863884 -51.042927 -1014.108
73.549789 -50.941647 -1013.9139
74.208267 -50.856621 -1013.809
74.865417 -50.77454 -1013.6828
75.398201 -50.686832 -1013.6912
75.85247 -50.617088 -1013.8021
76.58461 -50.527573 -1013.5646
77.057373 -50.458065 -1013.658
77.615967 -50.405087 -1013.6843
78.28315 -50.298325 -1013.5222
78.89077 -50.211575 -1013.447
79.417267 -50.136452 -1013.5212
79.995262 -50.063095 -1013.5602
80.569199 -49.977001 -1013.5665
81.167496 -49.896622 -1013.5457
81.693214 -49.806274 -1013.6113
82.126335 -49.776142 -1013.8482
82.815491 -49.672935 -1013.7228
83.370895 -49.587929 -1013.733
83.788078 -49.531143 -1013.9644
84.360596 -49.441319 -1013.9872
84.986191 -49.346615 -1013.9757
85.619713 -49.281719 -1013.9852
86.123817 -49.212761 -1014.1294
86.70945 -49.131981 -1014.1794
87.109673 -49.091911 -1014.4471
87.625893 -48.990944 -1014.5847
88.108391 -48.943977 -1014.7639
88.57354 -48.885735 -1014.9717
89.121407 -48.795986 -1015.0566
89.60006 -48.743851 -1015.2398
90.174507 -48.668003 -1015.3647
90.753593 -48.577663 -1015.4858
91.148689 -48.523201 -1015.8488
91.774933 -48.420376 -1015.8488
92.263336 -48.359566 -1016.0522
92.848175 -48.287472 -1016.1552
93.302078 -48.225029 -1016.4316
93.742538 -48.164139 -1016.6877
94.230804 -48.102791 -1016.925
94.838821 -48.003193 -1016.9998
95.201042 -47.955536 -1017.4203
95.757751 -47.874931 -1017.6103
96.145264 -47.836685 -1018.0253
96.729057 -47.767963 -1018.1631
97.17112 -47.692154 -1018.4658
97.652496 -47.622074 -1018.7437
98.141922 -47.527596 -1018.9623
98.526611 -47.506081 -1019.3934
99.117195 -47.409306 -1019.5259
99.537743 -47.365341 -1019.8964
100.16116 -47.2859 -1020.0186
100.51366 -47.234261 -1020.5898
101.04819 -47.159439 -1020.8596
101.42406 -47.081573 -1021.3253
101.78578 -47.055889 -1021.7953
102.44833 -46.963398 -1021.8705
102.79311 -46.919861 -1022.4144
103.11365 -46.87159 -1022.9812
103.74939 -46.773018 -1023.1196
104.14761 -46.727142 -1023.5958
104.67088 -46.665119 -1023.9019
105.13581 -46.598503 -1024.3517
105.48602 -46.534603 -1024.9506
106.0461 -46.462341 -1025.2634
106.34395 -46.432842 -1025.8795
106.70656 -46.385494 -1026.4471
107.22104 -46.328133 -1026.8195
107.53665 -46.257587 -1027.475
107.94035 -46.205006 -1028.0093
108.35247 -46.151855 -1028.5399
108.678 -46.100616 -1029.2445
109.41752 -46.033012 -1029.4447
109.86359 -45.96093 -1029.9857
110.15092 -45.923759 -1030.7555
110.44971 -45.865246 -1031.5035
110.93871 -45.798885 -1032.0178
111.03819 -45.789623 -1033.054
111.50002 -45.71574 -1033.6619
111.84138 -45.62915 -1034.4092
112.4019 -45.597416 -1034.8857
112.56312 -45.552288 -1035.8995
112.90833 -45.538048 -1036.8022
113.35484 -45.468018 -1037.5565
113.8632 -45.391052 -1038.2012
113.9312 -45.380455 -1039.4794
114.28743 -45.33007 -1040.3328
114.81481 -45.271782 -1041.0482
114.85125 -45.275166 -1042.4885
115.2278 -45.207596 -1043.5458
115.24797 -45.191303 -1044.9758
115.52002 -45.152935 -1046.3052
116.27978 -45.071873 -1047.0715
116.40639 -45.051449 -1048.8557
115.82731 -45.093643 -1051.667
116.30076 -45.054901 -1053.3209
116.61274 -45.113113 -1056.0044
53.271935 -53.236874 -1022.869
54.247227 -53.092545 -1022.0479
55.027935 -53.008953 -1021.4924
55.685078 -52.89399 -1021.0651
56.5728 -52.754185 -1020.3693
57.328743 -52.66341 -1019.8667
58.058235 -52.555477 -1019.4246
58.980007 -52.446125 -1018.7626
59.780636 -52.343815 -1018.2576
60.342068 -52.262787 -1018.0686
61.048443 -52.16618 -1017.754
61.881271 -52.061863 -1017.2648
62.591461 -51.963425 -1016.9198
63.377621 -51.831947 -1016.4816
64.006012 -51.744991 -1016.2618
64.733246 -51.66396 -1015.921
65.396156 -51.566387 -1015.6649
66.002571 -51.472038 -1015.4844
66.637749 -51.383171 -1015.2512
67.352089 -51.288624 -1014.9722
68.040245 -51.185139 -1014.7726
68.757912 -51.091553 -1014.4932
69.378479 -51.00433 -1014.3414
70.010696 -50.926014 -1014.1896
70.586761 -50.852726 -1014.1047
71.062538 -50.791454 -1014.1556
71.647827 -50.702942 -1014.0511
72.385628 -50.595959 -1013.7687
72.949776 -50.522114 -1013.7188
73.696014 -50.421783 -1013.455
74.301773 -50.334923 -1013.4006
74.923843 -50.262325 -1013.3411
75.478386 -50.162716 -1013.3098
76.025604 -50.106918 -1013.2961
76.594948 -50.023022 -1013.2784
77.158142 -49.937908 -1013.2676
77.740334 -49.856274 -1013.2144
78.349541 -49.77076 -1013.1464
78.824638 -49.696289 -1013.2433
79.490967 -49.620403 -1013.1517
80.022926 -49.551071 -1013.2502
80.622803 -49.466076 -1013.2275
81.294693 -49.359577 -1013.0974
81.785942 -49.301464 -1013.2201
82.260483 -49.240227 -1013.3619
82.806183 -49.158585 -1013.4334
83.326874 -49.095097 -1013.5256
84.011314 -48.989216 -1013.399
84.413284 -48.930721 -1013.6227
85.096855 -48.848724 -1013.5548
85.542297 -48.777382 -1013.7874
86.139793 -48.698246 -1013.8354
86.712067 -48.62299 -1013.8707
87.267525 -48.555458 -1013.9472
87.582481 -48.49519 -1014.3348
88.202698 -48.414505 -1014.3383
88.567818 -48.346085 -1014.662
89.165291 -48.27372 -1014.7104
89.755653 -48.174423 -1014.7368
90.387787 -48.105614 -1014.752
90.694725 -48.05341 -1015.2329
91.419556 -47.971748 -1015.1722
91.830399 -47.905407 -1015.4558
92.416718 -47.821938 -1015.5362
92.905571 -47.763306 -1015.7416
93.315948 -47.687935 -1016.0706
93.709167 -47.648308 -1016.412
94.41507 -47.546257 -1016.3516
94.917397 -47.479534 -1016.5509
95.225677 -47.421192 -1017.0681
95.801941 -47.36351 -1017.2066
96.22435 -47.280483 -1017.5687
96.745621 -47.22142 -1017.7908
97.306053 -47.160339 -1017.9546
97.844696 -47.06813 -1018.134
98.180534 -47.008423 -1018.5798
98.651039 -46.953793 -1018.8696
99.186401 -46.877415 -1019.0975
99.656219 -46.824684 -1019.3884
100.00264 -46.778751 -1019.9294
100.58113 -46.682011 -1020.1505
100.9445 -46.66507 -1020.6563
101.45938 -46.567329 -1020.9248
101.90657 -46.539528 -1021.3063
102.45609 -46.444397 -1021.5417
102.90872 -46.38348 -1021.9236
103.30347 -46.310368 -1022.3914
103.7597 -46.275883 -1022.7844
104.29921 -46.196495 -1023.0575
104.58987 -46.153416 -1023.7065
104.93259 -46.089825 -1024.3014
105.56314 -46.019184 -1024.5354
105.85669 -45.965542 -1025.1815
106.25883 -45.927315 -1025.6847
106.83124 -45.851154 -1025.9551
107.20078 -45.800522 -1026.4888
107.72955 -45.729465 -1026.8707
108.05761 -45.676624 -1027.517
108.34541 -45.62561 -1028.1921
108.57369 -45.610416 -1029.0543
109.3471 -45.527714 -1029.2024
109.77023 -45.443115 -1029.7279
110.10515 -45.395084 -1030.4594
110.4437 -45.345882 -1031.168
111.00533 -45.280155 -1031.5574
111.17829 -45.254997 -1032.5211
111.62563 -45.186012 -1033.1249
111.99128 -45.135082 -1033.8524
112.40472 -45.075706 -1034.484
112.62874 -45.0532 -1035.4705
113.07111 -44.967697 -1036.1588
113.60105 -44.903336 -1036.792
113.60529 -44.896332 -1038.1571
114.06821 -44.835358 -1038.8502
114.21857 -44.820271 -1040.0219
114.67059 -44.772415 -1040.804
114.89683 -44.758949 -1041.9834
115.14928 -44.710564 -1043.1183
115.45992 -44.633183 -1044.2401
115.69165 -44.605743 -1045.5427
115.59424 -44.624859 -1047.5099
116.61527 -44.482384 -1047.8413
115.79588 -44.612103 -1051.1296
116.15205 -44.526146 -1052.6854
116.78284 -44.525761 -1054.3986
53.381947 -52.649738 -1022.356
54.412918 -52.517506 -1021.4713
55.307186 -52.375435 -1020.7355
55.981396 -52.296944 -1020.3286
56.564125 -52.199577 -1020.0307
57.401794 -52.050159 -1019.4238
58.315102 -51.919437 -1018.7612
59.064968 -51.846859 -1018.313
60.551018 -51.663342 -1017.4756
61.262413 -51.55761 -1017.1346
62.035263 -51.444084 -1016.7276
62.821869 -51.344959 -1016.3002
63.415958 -51.26487 -1016.1065
64.065071 -51.192371 -1015.8634
64.712929 -51.084949 -1015.6157
65.4422 -50.977127 -1015.2497
66.110748 -50.905468 -1015.0106
66.778023 -50.785793 -1014.751
67.376801 -50.722694 -1014.6382
68.084869 -50.619812 -1014.3956
68.871773 -50.528969 -1014.0516
69.390594 -50.45015 -1014.011
69.935387 -50.378384 -1013.9766
70.611511 -50.286354 -1013.755
71.210579 -50.190151 -1013.6405
71.891052 -50.084614 -1013.4256
72.512344 -50.026447 -1013.3215
72.987053 -49.958122 -1013.3702
73.638763 -49.862717 -1013.2264
74.256866 -49.766735 -1013.1465
74.845695 -49.691486 -1013.1242
75.452972 -49.593876 -1013.0392
76.064064 -49.516636 -1012.9286
76.588074 -49.44968 -1012.9781
77.233925 -49.370476 -1012.8507
77.748116 -49.31073 -1012.9056
78.359001 -49.201378 -1012.8316
78.75843 -49.145302 -1013.0291
79.526558 -49.04422 -1012.7963
80.114868 -48.945492 -1012.8041
80.802536 -48.873417 -1012.6786
81.363853 -48.780342 -1012.6915
81.709366 -48.718807 -1012.985
82.291504 -48.635578 -1012.9846
82.85128 -48.542023 -1013.0367
83.23291 -48.513493 -1013.3099
83.978653 -48.42284 -1013.1168
84.573715 -48.343975 -1013.0739
85.013931 -48.282318 -1013.2919
85.616547 -48.225704 -1013.358
86.155479 -48.105537 -1013.43
86.742104 -48.046036 -1013.4701
87.236938 -47.952293 -1013.6248
87.736221 -47.898212 -1013.7723
88.249184 -47.856014 -1013.9094
88.775513 -47.758308 -1014.0035
89.396339 -47.698326 -1014.0148
89.88517 -47.63385 -1014.1604
90.300285 -47.583366 -1014.5055
90.925697 -47.480331 -1014.5627
91.425972 -47.421955 -1014.7493
91.921745 -47.366768 -1014.9379
92.317467 -47.298954 -1015.2684
92.979591 -47.196606 -1015.2393
93.531593 -47.115253 -1015.3766
93.915062 -47.066467 -1015.7126
94.483047 -46.997234 -1015.8342
94.855766 -46.950649 -1016.2214
95.384872 -46.862679 -1016.4019
95.934013 -46.793438 -1016.6323
96.536209 -46.713646 -1016.748
97.00412 -46.645153 -1017.0444
97.50486 -46.583179 -1017.2735
97.82872 -46.526646 -1017.7377
98.498428 -46.444408 -1017.754
98.843849 -46.387413 -1018.2349
99.276871 -46.321236 -1018.5638
99.880104 -46.253647 -1018.6776
100.18823 -46.184753 -1019.2098
100.71453 -46.124699 -1019.5591
101.21735 -46.056904 -1019.8537
101.51579 -46.000404 -1020.4459
101.9539 -45.92342 -1020.8214
102.44225 -45.87804 -1021.1772
102.8649 -45.819412 -1021.5876
103.35114 -45.749882 -1021.9273
103.84263 -45.684986 -1022.2495
104.22429 -45.633656 -1022.7623
104.69837 -45.574989 -1023.1724
105.09937 -45.517189 -1023.7031
105.39083 -45.45303 -1024.3729
105.90532 -45.386093 -1024.7332
106.40795 -45.332291 -1025.1035
106.79591 -45.271282 -1025.5956
107.25785 -45.221844 -1026.0321
107.71626 -45.133354 -1026.4788
108.01681 -45.105423 -1027.1852
108.59706 -45.024075 -1027.4395
108.87267 -44.977951 -1028.236
109.54176 -44.905045 -1028.4861
109.86082 -44.85955 -1029.241
110.14707 -44.808147 -1029.9712
110.60837 -44.759026 -1030.5343
111.05416 -44.694382 -1031.0717
111.29095 -44.696304 -1031.988
111.76576 -44.602753 -1032.5276
112.04639 -44.543541 -1033.3647
112.44551 -44.490841 -1034.027
112.81837 -44.446156 -1034.7555
113.18245 -44.393185 -1035.606
113.29504 -44.370533 -1036.8096
113.72165 -44.315311 -1037.5272
114.07003 -44.271893 -1038.3875
114.44614 -44.222054 -1039.2411
114.77901 -44.183929 -1040.1864
114.6527 -44.199638 -1041.8158
115.49931 -44.094902 -1042.099
115.36592 -44.103157 -1043.8273
116.10183 -43.996906 -1044.3711
116.62707 -43.922596 -1045.4436
115.74876 -43.983078 -1048.463
116.29099 -43.967735 -1049.5939
116.53238 -43.934982 -1051.3848
118.12148 -43.698788 -1051.3127
52.573929 -52.184372 -1022.5989
53.503597 -52.016689 -1021.8254
55.447109 -51.769028 -1020.209
56.177853 -51.668427 -1019.7142
56.871765 -51.568115 -1019.2813
57.523872 -51.489433 -1018.9238
58.295731 -51.392719 -1018.4421
59.081169 -51.264977 -1017.9504
59.792267 -51.158928 -1017.5517
60.668186 -51.0294 -1016.9917
61.324169 -50.957291 -1016.7299
62.094864 -50.852947 -1016.33
62.700962 -50.766403 -1016.1144
63.421093 -50.683502 -1015.7656
64.094719 -50.568729 -1015.4688
64.724854 -50.480942 -1015.2529
65.378273 -50.379097 -1014.9965
66.117996 -50.308571 -1014.6865
66.752716 -50.216492 -1014.4556
67.444321 -50.124599 -1014.2216
68.025826 -50.028297 -1014.1444
68.814857 -49.941711 -1013.7891
69.400879 -49.850857 -1013.678
70.03183 -49.773369 -1013.533
70.617004 -49.693939 -1013.4378
71.190773 -49.594383 -1013.3549
71.839134 -49.519836 -1013.1832
72.501282 -49.442585 -1013.0023
73.031654 -49.358608 -1012.9876
73.646484 -49.265244 -1012.8972
74.284142 -49.171013 -1012.8013
75.079605 -49.077206 -1012.5115
75.65448 -49.001282 -1012.4678
76.269661 -48.898029 -1012.3526
76.738052 -48.840004 -1012.4516
77.226891 -48.763233 -1012.5305
77.778275 -48.688866 -1012.5312
78.383751 -48.596581 -1012.4543
78.887131 -48.531708 -1012.516
79.579414 -48.437683 -1012.3779
80.111328 -48.356354 -1012.4579
80.623833 -48.27285 -1012.5505
81.405525 -48.174187 -1012.2591
81.772072 -48.144836 -1012.5502
82.380013 -48.050541 -1012.5088
82.916725 -47.999336 -1012.5519
83.531593 -47.92004 -1012.4998
84.057068 -47.857037 -1012.5851
84.701477 -47.766384 -1012.4795
85.174187 -47.688442 -1012.6537
85.896721 -47.616383 -1012.5598
86.27433 -47.574165 -1012.9017
86.94593 -47.468117 -1012.8063
87.537292 -47.393612 -1012.8195
88.074409 -47.3339 -1012.9338
88.452217 -47.253468 -1013.2395
88.79213 -47.215824 -1013.6002
89.355728 -47.153969 -1013.7001
89.897346 -47.062351 -1013.7675
90.46579 -46.99892 -1013.8906
90.837151 -46.924637 -1014.2858
91.603554 -46.840668 -1014.1271
91.951309 -46.798977 -1014.5198
92.601303 -46.672958 -1014.4894
93.024475 -46.62859 -1014.811
93.455734 -46.572212 -1015.1002
94.017075 -46.514359 -1015.2098
94.497528 -46.425915 -1015.4735
95.022095 -46.357201 -1015.6358
95.333237 -46.313675 -1016.1172
95.927696 -46.23098 -1016.2745
96.545143 -46.148621 -1016.3838
97.047379 -46.072834 -1016.5897
97.58651 -46.013252 -1016.7917
97.821968 -45.960991 -1017.3832
98.399803 -45.866405 -1017.4938
98.878296 -45.821571 -1017.811
99.347015 -45.771427 -1018.095
99.848442 -45.706333 -1018.3452
100.27529 -45.615868 -1018.7272
100.69746 -45.570473 -1019.1808
101.34334 -45.494377 -1019.3024
101.73864 -45.432053 -1019.7037
102.18617 -45.350582 -1020.0849
102.48122 -45.330841 -1020.6865
103.02218 -45.229061 -1020.9148
103.46366 -45.182796 -1021.321
104.03653 -45.096249 -1021.5637
104.36938 -45.051193 -1022.1115
104.64476 -45.005619 -1022.7844
105.37358 -44.896751 -1022.8677
105.7149 -44.823235 -1023.4744
106.12151 -44.786083 -1023.9716
106.61417 -44.702278 -1024.3448
106.84778 -44.67662 -1025.0884
107.28131 -44.612278 -1025.5696
107.67263 -44.557663 -1026.1266
108.2913 -44.460575 -1026.3657
108.68486 -44.416111 -1026.9011
108.87974 -44.399757 -1027.8114
109.29813 -44.329426 -1028.4362
109.95972 -44.250931 -1028.7007
110.15952 -44.23476 -1029.5959
110.53292 -44.175861 -1030.2367
110.8318 -44.134228 -1030.9796
111.35753 -44.056709 -1031.4581
111.63168 -44.009281 -1032.2433
112.03681 -43.949665 -1032.9417
112.35825 -43.905743 -1033.6884
112.63907 -43.868992 -1034.5687
113.13972 -43.810417 -1035.2115
113.73468 -43.73988 -1035.7179
114.01069 -43.685619 -1036.6875
114.28291 -43.640671 -1037.6191
114.69942 -43.563202 -1038.3926
114.67356 -43.588943 -1039.8192
114.99504 -43.568298 -1040.8433
115.26453 -43.526649 -1041.957
115.60083 -43.476688 -1042.9666
115.78558 -43.445736 -1044.2627
116.43626 -43.32835 -1045.0979
116.44767 -43.317848 -1046.7848
116.41758 -43.322502 -1048.7216
116.80902 -43.274704 -1050.192
116.66266 -43.289772 -1052.4116
52.65551 -51.530201 -1022.0728
53.607349 -51.436363 -1021.3055
54.682606 -51.251339 -1020.3743
55.452183 -51.165936 -1019.8171
56.161415 -51.077194 -1019.3657
56.85162 -50.950817 -1018.9423
57.602608 -50.850384 -1018.4605
58.383533 -50.776569 -1017.9805
59.197834 -50.648659 -1017.4504
60.00737 -50.532368 -1016.925
60.676048 -50.442661 -1016.6226
61.358326 -50.341946 -1016.3176
62.118275 -50.244823 -1015.9398
62.841763 -50.147385 -1015.5872
63.517864 -50.053524 -1015.2888
64.209251 -49.967396 -1014.9793
64.90873 -49.858829 -1014.6671
65.561722 -49.774738 -1014.4364
66.195511 -49.702518 -1014.2386
66.847023 -49.609066 -1014.0182
67.527206 -49.509861 -1013.7749
68.178024 -49.406158 -1013.6221
68.842384 -49.333622 -1013.4285
69.444717 -49.258472 -1013.3145
70.028206 -49.148232 -1013.1857
70.707687 -49.079533 -1012.9871
71.328575 -48.994263 -1012.8636
72.066055 -48.898556 -1012.5764
72.473 -48.839371 -1012.7205
73.128609 -48.756939 -1012.539
73.628319 -48.662403 -1012.5771
74.374374 -48.5704 -1012.347
75.011581 -48.481815 -1012.2483
75.676247 -48.368923 -1012.0569
76.16153 -48.296761 -1012.111
76.687233 -48.217831 -1012.1503
77.210983 -48.171227 -1012.1853
77.929626 -48.073318 -1011.9398
78.445618 -48.014839 -1011.971
79.100288 -47.921589 -1011.8322
79.686661 -47.836758 -1011.7864
80.073029 -47.791039 -1012.0701
80.982849 -47.704922 -1011.6691
81.564659 -47.615067 -1011.6541
82.017502 -47.558205 -1011.799
82.573723 -47.472565 -1011.8378
83.061485 -47.403778 -1011.9572
83.480141 -47.377716 -1012.1893
84.195618 -47.252258 -1012.0204
84.560303 -47.221107 -1012.3171
85.252663 -47.118492 -1012.2028
85.764038 -47.049065 -1012.3824
86.320755 -46.975769 -1012.4882
86.921989 -46.871464 -1012.4864
87.503517 -46.805927 -1012.5298
87.948875 -46.730274 -1012.7575
88.309677 -46.685806 -1013.0895
88.875336 -46.599682 -1013.1688
89.361031 -46.540157 -1013.3514
89.95256 -46.457413 -1013.3847
90.442932 -46.382942 -1013.5901
90.975632 -46.318901 -1013.7974
91.554108 -46.233067 -1013.9177
92.105156 -46.161327 -1014.0199
92.663956 -46.081772 -1014.1221
92.996445 -46.032578 -1014.5633
93.472061 -45.969444 -1014.7942
93.918411 -45.922306 -1015.0551
94.469978 -45.839703 -1015.1848
95.058273 -45.75964 -1015.2878
95.540146 -45.683743 -1015.5375
95.999138 -45.632839 -1015.8745
96.458313 -45.571751 -1016.1943
97.009254 -45.502281 -1016.3636
97.362007 -45.441833 -1016.7764
97.899956 -45.34024 -1016.9567
98.453888 -45.285419 -1017.1283
98.754959 -45.257813 -1017.6653
99.317017 -45.172337 -1017.8198
99.721245 -45.11277 -1018.2015
100.45731 -45.015594 -1018.1768
100.85587 -44.972244 -1018.6422
101.22533 -44.891247 -1019.1049
101.85341 -44.824551 -1019.2251
102.27007 -44.761055 -1019.6327
102.62687 -44.705059 -1020.1099
102.94002 -44.683121 -1020.6741
103.4762 -44.585587 -1020.9307
103.98122 -44.520176 -1021.2419
104.41698 -44.458488 -1021.66
104.85322 -44.400597 -1022.0965
105.46601 -44.322144 -1022.3231
105.73691 -44.268085 -1023.0155
106.18631 -44.206459 -1023.4631
106.49007 -44.175846 -1024.0872
107.0602 -44.090145 -1024.3385
107.46884 -44.024559 -1024.8368
107.83256 -43.966618 -1025.4294
108.32392 -43.88311 -1025.8541
108.73556 -43.822388 -1026.3375
108.94911 -43.805313 -1027.2218
109.51041 -43.700077 -1027.6425
109.723 -43.66494 -1028.5426
110.11601 -43.608479 -1029.1731
110.44476 -43.558586 -1029.8896
110.97011 -43.479282 -1030.3538
111.38926 -43.408989 -1030.9786
111.75024 -43.387032 -1031.6691
112.24641 -43.329922 -1032.2222
112.60699 -43.284439 -1032.9437
112.9875 -43.217957 -1033.6439
113.14364 -43.215988 -1034.7649
113.65347 -43.131096 -1035.3724
113.84145 -43.088051 -1036.4482
114.44727 -43.033546 -1036.9519
114.59638 -42.980244 -1038.0558
115.08001 -42.921188 -1038.7329
114.96179 -42.966766 -1040.3812
115.52061 -42.869415 -1041.0214
115.64236 -42.836884 -1042.3232
115.76633 -42.80373 -1043.7212
116.39417 -42.715076 -1044.4961
116.30315 -42.740459 -1046.4597
116.94404 -42.631996 -1047.2668
116.73968 -42.693996 -1049.4969
117.6343 -42.579498 -1052.8259
52.026031 -51.050957 -1022.0818
52.851681 -50.905163 -1021.4393
53.713123 -50.797539 -1020.7858
54.667297 -50.673801 -1020.0275
56.246429 -50.453262 -1018.8829
56.921223 -50.350216 -1018.4803
57.765358 -50.230274 -1017.8972
58.432068 -50.149174 -1017.5444
59.144127 -50.059059 -1017.1694
60.063099 -49.932125 -1016.5281
60.897633 -49.840347 -1016.0182
61.441727 -49.777985 -1015.8942
62.199093 -49.64143 -1015.4938
63.023766 -49.538898 -1015.0204
63.630058 -49.435276 -1014.804
64.254745 -49.348274 -1014.583
64.978279 -49.260059 -1014.2778
65.580368 -49.172993 -1014.0871
66.091934 -49.096371 -1014.0277
66.817177 -49.005127 -1013.7154
67.56028 -48.907887 -1013.4175
68.176285 -48.853172 -1013.311
68.935081 -48.733009 -1012.9912
69.51738 -48.631462 -1012.8802
69.995079 -48.563625 -1012.9053
70.719055 -48.474022 -1012.65
71.303581 -48.378994 -1012.545
71.885719 -48.308918 -1012.4778
72.587296 -48.20446 -1012.2198
73.236427 -48.127491 -1012.0383
73.846436 -48.026302 -1011.9127
74.564758 -47.95396 -1011.6946
75.132957 -47.867752 -1011.6587
75.708572 -47.80014 -1011.6142
76.344276 -47.740116 -1011.4896
76.739235 -47.667118 -1011.6559
77.399323 -47.59296 -1011.5034
77.954727 -47.533829 -1011.5306
78.556549 -47.461517 -1011.4599
79.211983 -47.359035 -1011.2951
79.618675 -47.29332 -1011.5104
80.303566 -47.207821 -1011.4288
80.90123 -47.112717 -1011.4177
81.53653 -47.036324 -1011.3615
82.047752 -46.962029 -1011.4553
82.607841 -46.888783 -1011.489
83.135292 -46.82859 -1011.5726
83.556595 -46.763885 -1011.7955
84.102226 -46.690601 -1011.8559
84.75589 -46.584957 -1011.777
85.142776 -46.525871 -1012.0583
85.736351 -46.456318 -1012.1615
86.34903 -46.362137 -1012.1818
86.841522 -46.312134 -1012.3569
87.501129 -46.207249 -1012.2883
87.9711 -46.147968 -1012.4839
88.54454 -46.055965 -1012.5423
88.826561 -46.030792 -1013.0035
89.480492 -45.935593 -1012.9644
89.95076 -45.867798 -1013.1754
90.398529 -45.808674 -1013.439
90.920532 -45.735233 -1013.6494
91.475288 -45.645081 -1013.7635
91.93354 -45.590858 -1014.0167
92.494087 -45.526196 -1014.1298
92.966713 -45.471497 -1014.3821
93.520164 -45.393848 -1014.5251
93.967133 -45.311337 -1014.7711
94.538345 -45.249542 -1014.8999
95.012871 -45.168964 -1015.1192
95.434013 -45.128799 -1015.4801
95.913506 -45.040207 -1015.7614
96.538086 -44.979771 -1015.8587
96.993904 -44.905949 -1016.1646
97.461578 -44.833687 -1016.4131
98.028198 -44.760525 -1016.5576
98.471893 -44.686539 -1016.8677
98.897148 -44.631172 -1017.2193
99.365562 -44.572891 -1017.514
99.679863 -44.529701 -1018.0118
100.25153 -44.444576 -1018.1975
100.69254 -44.379959 -1018.6156
101.33305 -44.295017 -1018.7184
101.77382 -44.23468 -1019.0684
102.11519 -44.187855 -1019.5782
102.61958 -44.103989 -1019.8588
102.99516 -44.067795 -1020.3296
103.60603 -43.97485 -1020.4875
103.91903 -43.954559 -1021.0588
104.37926 -43.877522 -1021.4169
104.85969 -43.794975 -1021.7585
105.29411 -43.734402 -1022.2336
105.92294 -43.676331 -1022.4218
106.33068 -43.622925 -1022.913
106.76102 -43.552731 -1023.3591
107.08768 -43.492668 -1023.9357
107.50729 -43.444157 -1024.4009
108.13686 -43.3489 -1024.6063
108.3069 -43.321583 -1025.4561
108.8727 -43.252304 -1025.7504
109.23705 -43.201363 -1026.3694
109.582 -43.146099 -1027.0565
109.95891 -43.085751 -1027.7382
110.21383 -43.040623 -1028.5291
110.69767 -42.939846 -1028.9899
110.96141 -42.89278 -1029.8
111.42007 -42.827328 -1030.3892
111.8283 -42.75235 -1031.0701
112.14294 -42.690701 -1031.8582
112.37141 -42.685951 -1032.8032
112.92065 -42.597931 -1033.3099
113.297 -42.586777 -1034.1238
113.59518 -42.539543 -1035.0391
114.17545 -42.437958 -1035.5629
114.58379 -42.395878 -1036.3083
114.75488 -42.36433 -1037.3735
115.02875 -42.313984 -1038.3102
115.22632 -42.288483 -1039.4817
115.48792 -42.225197 -1040.5504
115.79678 -42.225807 -1041.6049
116.39276 -42.118362 -1042.2668
116.04665 -42.153683 -1044.3832
116.72819 -42.068371 -1045.1676
116.91753 -42.049652 -1046.7332
116.69196 -42.084023 -1048.8245
117.25505 -42.00296 -1052.2371
51.345226 -50.545227 -1022.1924
52.173069 -50.423603 -1021.5429
52.887009 -50.317257 -1021.0302
53.814449 -50.201458 -1020.2998
54.679222 -50.056812 -1019.6305
55.661053 -49.933014 -1018.8405
56.466183 -49.832504 -1018.2758
57.104507 -49.757172 -1017.9235
57.759571 -49.673801 -1017.5806
58.439445 -49.568874 -1017.224
59.206573 -49.470154 -1016.7662
60.007301 -49.352516 -1016.2664
60.852665 -49.261997 -1015.7545
61.647598 -49.145966 -1015.3149
62.250252 -49.073662 -1015.1317
62.973866 -48.966198 -1014.7619
63.584675 -48.871502 -1014.5338
64.330612 -48.782894 -1014.1791
64.934525 -48.679756 -1013.9937
65.499214 -48.602932 -1013.8721
66.283936 -48.499332 -1013.4727
66.96051 -48.384186 -1013.2072
67.593414 -48.295128 -1013.0514
68.290787 -48.212315 -1012.8209
68.971916 -48.109035 -1012.5926
69.65033 -48.014202 -1012.381
70.126404 -47.946285 -1012.3865
70.738716 -47.865284 -1012.2475
71.44635 -47.775524 -1011.9888
72.021065 -47.719707 -1011.8661
72.825783 -47.654484 -1011.5039
73.371078 -47.565102 -1011.4352
73.82296 -47.502865 -1011.545
74.580994 -47.398762 -1011.2893
75.249054 -47.338104 -1011.1437
75.843407 -47.241631 -1011.085
76.327477 -47.182457 -1011.1422
76.870453 -47.113895 -1011.1542
77.518547 -47.027973 -1011.0518
78.049416 -46.954845 -1011.0721
78.619514 -46.860355 -1011.0507
79.242401 -46.779594 -1010.9722
79.727325 -46.71566 -1011.1221
80.370529 -46.599426 -1011.0818
80.939728 -46.545837 -1011.1251
81.545975 -46.450607 -1011.0972
82.051392 -46.371117 -1011.2173
82.63343 -46.299755 -1011.2145
83.045128 -46.251205 -1011.4668
83.621048 -46.168255 -1011.4956
84.113884 -46.10598 -1011.6462
84.650597 -46.025951 -1011.7289
85.217209 -45.953533 -1011.7969
85.770325 -45.884724 -1011.939
86.376617 -45.775688 -1011.967
86.839363 -45.720097 -1012.191
87.339622 -45.652611 -1012.3298
87.80146 -45.580688 -1012.5286
88.348511 -45.510723 -1012.6231
88.821609 -45.44809 -1012.8428
89.325447 -45.381187 -1012.9947
89.85923 -45.298721 -1013.1086
90.425896 -45.207062 -1013.2081
90.844818 -45.150536 -1013.5698
91.499123 -45.048473 -1013.5403
91.936424 -44.985123 -1013.8271
92.395462 -44.927238 -1014.0693
92.847649 -44.857548 -1014.3384
93.441795 -44.792591 -1014.4321
93.880516 -44.721085 -1014.7093
94.26284 -44.660553 -1015.0729
94.888992 -44.580494 -1015.1158
95.411583 -44.507233 -1015.3109
95.959152 -44.424015 -1015.5093
96.351295 -44.375904 -1015.8928
96.909576 -44.29213 -1016.0432
97.323456 -44.237007 -1016.385
97.907883 -44.145344 -1016.5083
98.401466 -44.083 -1016.7582
98.726326 -44.053257 -1017.2523
99.257835 -43.976425 -1017.4501
99.826332 -43.891804 -1017.5939
100.34416 -43.81456 -1017.8547
100.70131 -43.763519 -1018.3849
101.17893 -43.700172 -1018.6992
101.78606 -43.64719 -1018.8443
102.09553 -43.585636 -1019.4055
102.53903 -43.527954 -1019.7678
103.03829 -43.467545 -1020.0503
103.46242 -43.414001 -1020.4735
103.94151 -43.350914 -1020.8052
104.26454 -43.303513 -1021.3312
104.78733 -43.245693 -1021.6497
105.2518 -43.160065 -1022.0569
105.72118 -43.100178 -1022.4658
106.23571 -43.024426 -1022.7808
106.6693 -42.94957 -1023.1951
107.09881 -42.921238 -1023.6714
107.44619 -42.870834 -1024.2209
107.94717 -42.803185 -1024.5828
108.23975 -42.754612 -1025.2504
108.67845 -42.690128 -1025.7086
109.18602 -42.630409 -1026.1021
109.57875 -42.576836 -1026.6979
109.9911 -42.520775 -1027.2775
110.6109 -42.409771 -1027.5455
110.85912 -42.382965 -1028.3751
111.31517 -42.336132 -1028.8638
111.65916 -42.263107 -1029.5944
112.10766 -42.163742 -1030.1074
112.35478 -42.153919 -1031.0518
112.66051 -42.085346 -1031.8417
112.86235 -42.032799 -1032.8469
113.36152 -41.966724 -1033.5068
113.69596 -41.920647 -1034.3756
114.41054 -41.812836 -1034.7279
114.40965 -41.811722 -1036.0455
114.51093 -41.7906 -1037.25
115.2036 -41.69862 -1037.5952
115.21191 -41.714684 -1039.0425
115.61481 -41.648983 -1039.9227
115.94045 -41.572021 -1040.8362
116.16 -41.557442 -1042.1205
116.38021 -41.523495 -1043.4642
116.75182 -41.47649 -1044.5676
116.90144 -41.457748 -1046.0597
116.83381 -41.466434 -1047.9764
117.21366 -41.359215 -1049.3358
117.30193 -41.335339 -1051.2822
52.304951 -49.883022 -1021.0453
53.119728 -49.751354 -1020.3996
53.987232 -49.636703 -1019.7288
54.919399 -49.501041 -1019.0096
55.699131 -49.422443 -1018.4775
56.424129 -49.310856 -1018.0099
57.169094 -49.193401 -1017.5309
57.883587 -49.119827 -1017.107
58.721813 -49.005913 -1016.5452
59.40271 -48.909424 -1016.2014
60.218472 -48.779327 -1015.6924
60.83931 -48.709442 -1015.4583
61.592548 -48.611065 -1015.0748
62.372562 -48.514671 -1014.6736
63.101116 -48.417728 -1014.3176
63.660992 -48.338566 -1014.1668
64.34774 -48.233421 -1013.8489
65.109352 -48.12748 -1013.4874
65.688782 -48.042992 -1013.3352
66.424591 -47.925282 -1012.9813
67.029457 -47.849594 -1012.8028
67.727013 -47.773003 -1012.5541
68.421524 -47.663925 -1012.319
69.019539 -47.589294 -1012.1811
69.627411 -47.535789 -1012.0414
70.431877 -47.449116 -1011.6365
70.951111 -47.380424 -1011.6168
71.668892 -47.288219 -1011.3275
72.223656 -47.222218 -1011.2534
72.841545 -47.143257 -1011.1141
73.325623 -47.054298 -1011.1544
73.910576 -46.982521 -1011.1219
74.672295 -46.875805 -1010.8743
75.285591 -46.803699 -1010.834
75.875153 -46.716717 -1010.7857
76.395584 -46.653519 -1010.8178
76.848892 -46.567268 -1010.9447
77.494263 -46.506302 -1010.859
78.137459 -46.391861 -1010.7305
78.533485 -46.344574 -1010.9631
79.141762 -46.266384 -1010.9053
79.724548 -46.186451 -1010.9304
80.38089 -46.102978 -1010.9015
80.882797 -46.02692 -1011.0193
81.519371 -45.94297 -1010.9756
82.025871 -45.860283 -1011.0714
82.573624 -45.780643 -1011.1333
83.067795 -45.71381 -1011.2733
83.559067 -45.632748 -1011.4089
84.072441 -45.558907 -1011.5307
84.643326 -45.493423 -1011.5762
85.217697 -45.404018 -1011.6532
85.682411 -45.321091 -1011.894
86.330727 -45.22813 -1011.8793
86.800377 -45.132137 -1012.0443
87.18779 -45.109119 -1012.3541
87.652138 -45.022026 -1012.5447
88.297089 -44.944675 -1012.4935
88.778313 -44.867424 -1012.688
89.316368 -44.811501 -1012.8016
89.832275 -44.713245 -1012.9323
90.185516 -44.663452 -1013.319
90.936424 -44.565659 -1013.2029
91.517899 -44.502254 -1013.2943
91.88559 -44.442493 -1013.6207
92.491425 -44.367039 -1013.7015
92.929703 -44.297237 -1013.9915
93.444832 -44.235035 -1014.1646
93.908066 -44.17519 -1014.4211
94.339676 -44.120697 -1014.7159
94.91655 -44.039848 -1014.8177
95.345062 -43.98307 -1015.1532
95.995872 -43.878361 -1015.1997
96.477959 -43.825108 -1015.5015
96.84198 -43.788116 -1015.8996
97.380913 -43.698612 -1016.0815
97.79641 -43.635937 -1016.4247
98.266525 -43.571671 -1016.711
98.690254 -43.522003 -1017.0584
99.209053 -43.439297 -1017.2601
99.791718 -43.350368 -1017.39
100.35066 -43.293789 -1017.6263
100.61223 -43.25148 -1018.2845
101.15862 -43.142262 -1018.5199
101.68475 -43.08482 -1018.752
102.01864 -43.036793 -1019.2819
102.48785 -42.983196 -1019.6362
102.92048 -42.922501 -1020.0221
103.33691 -42.872684 -1020.4289
103.83701 -42.80827 -1020.749
104.21486 -42.756512 -1021.2487
104.74858 -42.684372 -1021.5258
105.17776 -42.626244 -1021.9755
105.69183 -42.559372 -1022.3308
106.29513 -42.47274 -1022.5356
106.56267 -42.446598 -1023.1859
107.08347 -42.374783 -1023.5029
107.43096 -42.360191 -1024.0569
107.86539 -42.276814 -1024.5018
108.38301 -42.204426 -1024.8344
108.66978 -42.184509 -1025.4862
109.25713 -42.091923 -1025.7648
109.55709 -42.046471 -1026.5126
110.15533 -41.96315 -1026.7794
110.5539 -41.913769 -1027.363
110.81795 -41.866955 -1028.1125
111.31693 -41.793068 -1028.552
111.71102 -41.738735 -1029.1626
112.15977 -41.673153 -1029.6976
112.46779 -41.621181 -1030.4517
112.85228 -41.574924 -1031.1095
113.10486 -41.559521 -1032.0181
113.70835 -41.446007 -1032.4719
113.92183 -41.387394 -1033.5457
114.37558 -41.310814 -1034.2767
114.56136 -41.26379 -1035.3705
114.62659 -41.230888 -1036.6268
114.99208 -41.189636 -1037.5028
115.51889 -41.089447 -1038.1635
115.7541 -41.105328 -1039.3009
116.08881 -41.035873 -1040.2976
116.18483 -41.019489 -1041.5574
116.58511 -40.968678 -1042.6351
116.66766 -40.957741 -1044.1763
116.73895 -40.928867 -1045.7665
117.4897 -40.865349 -1046.4651
117.63859 -40.759842 -1048.0817
117.78211 -40.80225 -1050.0334
52.247845 -49.356495 -1020.7913
53.101746 -49.25082 -1020.1168
54.02972 -49.128704 -1019.3865
54.924114 -48.982594 -1018.6951
56.488686 -48.786484 -1017.6185
57.152241 -48.715084 -1017.274
57.988789 -48.570313 -1016.696
58.784451 -48.485844 -1016.199
59.547932 -48.385059 -1015.7582
60.266682 -48.287991 -1015.3582
60.975101 -48.186424 -1014.9992
61.62991 -48.104431 -1014.7396
