76.444199	-1.170758	-993.492920	
77.006165	-1.079685	-993.364441	
77.553818	-1.044578	-993.430420	
78.147774	-0.961303	-993.611816	
78.672806	-0.908545	-993.304260	
79.254654	-0.833888	-993.620789	
79.805077	-0.774814	-993.517517	
80.364571	-0.695931	-993.489685	
80.914436	-0.621243	-993.576599	
81.408844	-0.564662	-993.582397	
81.971848	-0.508860	-993.795288	
82.492142	-0.429031	-993.708435	
83.021439	-0.367593	-993.795166	
83.578552	-0.292434	-993.815552	
84.094810	-0.229693	-993.908569	
84.663795	-0.168176	-993.997803	
85.210289	-0.092748	-994.080383	
85.730103	-0.019205	-994.033081	
86.261620	0.044055	-994.324158	
86.731613	0.098900	-994.340332	
87.260902	0.152301	-994.517639	
87.775589	0.229561	-994.832397	
88.276474	0.311778	-994.760010	
88.820816	0.374108	-994.985596	
89.299461	0.447385	-994.962036	
89.850761	0.512770	-995.202332	
90.352516	0.594029	-995.273560	
90.857704	0.652583	-995.281982	
91.362427	0.717058	-995.759705	
91.824860	0.783451	-995.684875	
92.322807	0.866525	-995.790771	
92.818642	0.924220	-996.191223	
93.311783	1.000024	-996.250000	
93.834358	1.076370	-996.663269	
94.317856	1.138267	-996.790894	
94.829437	1.229825	-996.930786	
95.324966	1.283600	-997.189026	
95.838440	1.349053	-996.790283	
96.396347	1.423118	-997.238892	
96.862015	1.497340	-997.477783	
97.358948	1.563808	-997.642639	
97.847023	1.639781	-997.747803	
98.309303	1.698349	-997.715820	
98.794914	1.778755	-998.238037	
99.241440	1.866454	-998.397095	
99.724113	1.922265	-998.748718	
100.200363	2.018003	-999.137268	
100.658379	2.105154	-999.340881	
101.130470	2.171736	-999.786743	
101.557304	2.242233	-999.859009	
102.036064	2.311739	-1000.246582	
102.491425	2.373637	-1000.468079	
102.949829	2.452779	-1000.716003	
103.428520	2.522600	-1001.090149	
103.875992	2.603400	-1001.184692	
104.390045	2.673500	-1001.576965	
104.876709	2.744485	-1001.773865	
105.352730	2.808903	-1002.087524	
105.810074	2.888981	-1002.578247	
106.203934	2.973211	-1002.894653	
106.659111	3.046402	-1003.362488	
107.088936	3.134904	-1003.755920	
107.522545	3.215175	-1003.984924	
107.981514	3.294264	-1004.286255	
108.416908	3.368210	-1004.451233	
108.882500	3.445765	-1005.106689	
109.309128	3.545442	-1005.466980	
109.767624	3.624225	-1006.204346	
110.185249	3.698045	-1006.552673	
110.569702	3.788245	-1006.610657	
111.016022	3.861067	-1007.215576	
111.418564	3.944240	-1007.632446	
111.825829	4.032001	-1008.201355	
112.245995	4.119616	-1008.674744	
112.643814	4.230734	-1009.078247	
113.097702	4.301898	-1009.692017	
113.513451	4.379908	-1010.469360	
113.842407	4.467760	-1011.149597	
114.173775	4.550422	-1011.823059	
114.538391	4.635885	-1012.431824	
114.930443	4.742039	-1013.021179	
115.310051	4.816848	-1013.504456	
115.684761	4.897453	-1014.011658	
116.099777	4.988742	-1014.906311	
116.482208	5.093359	-1015.487854	
116.867119	5.169025	-1016.037964	
117.258553	5.281337	-1016.741272	
117.629822	5.367166	-1017.452637	
117.986969	5.455476	-1018.199463	
118.322212	5.537189	-1018.799927	
118.687027	5.629370	-1019.706421	
119.375008	5.851436	-1021.294556	
119.712372	5.956768	-1022.119202	
120.036469	6.049500	-1022.902100	
120.369995	6.155455	-1023.857300	
120.679375	6.274680	-1024.653442	
120.949738	6.355226	-1024.801636	
36.569973	-3.484256	-1018.591248	
37.716148	-3.442361	-1014.807922	
38.837696	-3.432615	-1015.002563	
40.264961	-3.397637	-1012.285278	
41.400829	-3.371181	-1012.067627	
42.536663	-3.376953	-1010.251526	
43.686935	-3.302605	-1008.033142	
44.813747	-3.246847	-1009.030334	
45.943886	-3.229759	-1006.351318	
46.830597	-3.197998	-1005.942627	
47.795696	-3.158362	-1004.491638	
48.826958	-3.137432	-1003.782471	
49.576454	-3.112348	-1003.040771	
50.390633	-3.070293	-1002.490356	
51.096111	-3.002635	-1002.200134	
51.742577	-2.948052	-1001.910889	
52.466099	-2.834192	-1001.189026	
53.177670	-2.785109	-1000.613464	
53.958622	-2.719872	-1000.286621	
54.710106	-2.719440	-1000.258728	
55.468369	-2.648518	-999.278564	
56.191383	-2.574074	-999.097351	
56.876125	-2.538089	-998.559875	
57.607956	-2.474065	-998.574524	
58.298206	-2.433473	-998.058838	
58.978981	-2.356055	-997.693420	
59.748234	-2.325207	-996.969116	
60.400169	-2.254852	-997.252747	
61.096546	-2.203997	-996.803772	
61.757813	-2.154800	-996.253784	
62.414200	-2.075047	-996.398621	
63.067841	-2.000308	-996.160706	
63.668282	-1.936584	-995.667419	
64.324516	-1.910533	-995.648682	
64.967239	-1.840225	-995.603394	
65.599762	-1.776176	-995.126221	
66.256271	-1.715735	-995.105408	
66.853455	-1.657193	-994.550903	
67.502045	-1.599255	-994.476318	
68.133034	-1.541830	-994.764587	
68.751328	-1.468527	-994.459595	
69.374237	-1.420190	-994.307495	
69.939499	-1.368132	-994.037720	
70.553047	-1.304727	-993.871033	
71.156296	-1.230028	-993.912109	
71.737091	-1.166491	-993.652832	
72.352974	-1.110784	-993.798279	
72.931038	-1.060171	-993.656616	
73.557365	-0.986927	-993.740295	
74.138039	-0.943551	-993.442078	
74.732620	-0.868496	-993.589417	
75.303177	-0.788977	-993.390381	
75.836151	-0.729152	-993.328552	
76.407707	-0.672388	-993.503479	
76.966286	-0.603999	-993.342957	
77.516502	-0.544878	-993.336426	
78.105469	-0.470137	-993.408508	
78.643929	-0.410838	-993.471191	
79.216637	-0.340423	-993.332703	
79.767723	-0.287833	-993.384399	
80.340469	-0.204493	-993.573425	
80.875381	-0.140521	-993.604431	
81.382164	-0.081186	-993.541626	
81.926910	-0.024453	-993.509033	
82.463737	0.063179	-993.710815	
82.994514	0.118199	-993.638306	
83.551506	0.187107	-993.981750	
84.056190	0.246262	-993.771301	
84.637604	0.327542	-993.922607	
85.178619	0.393959	-994.031555	
85.688873	0.461466	-993.899292	
86.220230	0.526746	-994.192383	
86.689323	0.586936	-994.112549	
87.219475	0.654663	-994.361084	
87.744743	0.714511	-994.578918	
88.242111	0.788353	-994.598511	
88.795593	0.854281	-994.910706	
89.272629	0.944734	-994.723206	
89.807701	1.013275	-994.964966	
90.327057	1.085692	-995.190308	
90.825211	1.144296	-995.300659	
91.321747	1.213057	-995.393250	
91.788399	1.275082	-995.634094	
92.304443	1.340533	-995.817749	
92.788132	1.411218	-996.074463	
93.277695	1.497616	-996.127502	
93.789719	1.569908	-996.296753	
94.273621	1.637109	-996.390381	
94.795212	1.719761	-996.751465	
95.292717	1.757235	-996.908203	
95.815201	1.852685	-996.747131	
96.378273	1.911972	-997.223206	
96.831238	1.973042	-997.292114	
97.323486	2.053379	-997.372314	
97.803635	2.123373	-997.555481	
98.280449	2.210253	-997.825195	
98.753510	2.293932	-998.199707	
99.206268	2.352446	-998.378540	
99.688759	2.428553	-998.576294	
100.157135	2.525134	-998.869202	
100.623985	2.594574	-999.210266	
101.090942	2.670765	-999.760132	
101.523056	2.742847	-999.873962	
101.984909	2.829763	-1000.110413	
102.460274	2.870831	-1000.531738	
102.911476	2.959377	-1000.811768	
103.391174	3.048603	-1001.263611	
103.828331	3.120115	-1001.299438	
104.332138	3.195476	-1001.827148	
104.799057	3.253371	-1001.921631	
105.265320	3.337071	-1002.283630	
105.719513	3.399228	-1002.493103	
106.136131	3.467099	-1002.814819	
106.574837	3.557073	-1003.260803	
107.011246	3.623709	-1003.671143	
107.440041	3.709250	-1003.880127	
107.935616	3.783290	-1004.284607	
108.379089	3.868948	-1004.527100	
108.837029	3.959728	-1004.879150	
109.277664	4.054275	-1005.451843	
109.712883	4.127894	-1005.895691	
110.136086	4.219613	-1006.345886	
110.522682	4.293137	-1006.589844	
110.963844	4.370358	-1007.085754	
111.380150	4.422415	-1007.419128	
111.795471	4.513146	-1008.006226	
112.221008	4.613442	-1008.649414	
112.624573	4.720066	-1009.006287	
113.048256	4.796946	-1009.365540	
113.452240	4.886322	-1010.323975	
113.771782	4.969344	-1011.020813	
114.143471	5.050519	-1011.924988	
114.502434	5.127598	-1012.352905	
114.909744	5.236709	-1012.864441	
115.275909	5.319454	-1013.333740	
115.665482	5.411366	-1014.033569	
116.071388	5.512591	-1014.899048	
116.442459	5.599599	-1015.347412	
116.822495	5.687407	-1015.907349	
117.210442	5.780012	-1016.599915	
117.581253	5.876346	-1017.169128	
117.949425	5.971375	-1018.033630	
118.651230	6.145866	-1019.713318	
118.995117	6.248708	-1020.429810	
119.337128	6.364117	-1021.046326	
119.690262	6.431209	-1022.093018	
119.996887	6.533571	-1022.713257	
120.311249	6.652055	-1023.485474	
120.631149	6.758156	-1024.340698	
120.936378	6.857470	-1024.982544	
36.530430	-2.881849	-1018.268188	
37.627583	-2.902183	-1016.151611	
38.728527	-2.892506	-1016.191772	
41.330070	-2.846734	-1011.793335	
42.494102	-2.808346	-1009.807922	
43.579845	-2.757760	-1008.666443	
44.785152	-2.721415	-1007.627869	
45.884304	-2.726867	-1006.634827	
46.789482	-2.664333	-1005.473450	
47.724216	-2.647906	-1004.656738	
48.734985	-2.641541	-1003.943298	
49.525097	-2.579412	-1002.707825	
50.304886	-2.527372	-1002.688171	
50.993507	-2.483038	-1002.058350	
51.651077	-2.339174	-1001.925415	
52.412292	-2.293215	-1001.367737	
53.104168	-2.262378	-1000.443604	
53.902016	-2.208930	-1000.369934	
54.647449	-2.166768	-999.937561	
55.425663	-2.116719	-999.230103	
56.174915	-2.057755	-999.219299	
56.820808	-2.012585	-998.590820	
57.545601	-1.945136	-998.533264	
58.258892	-1.905670	-997.830994	
58.952557	-1.847903	-997.317078	
59.678207	-1.813677	-997.026367	
60.369968	-1.746768	-997.270081	
61.064095	-1.686974	-996.662598	
61.715668	-1.618348	-996.170105	
62.365433	-1.566161	-996.142334	
63.021561	-1.479972	-996.041748	
63.616646	-1.446428	-995.707947	
64.290375	-1.400435	-995.769531	
64.929878	-1.320229	-995.449951	
65.558212	-1.264092	-995.244629	
66.213249	-1.202844	-994.639587	
66.819504	-1.139541	-994.834595	
67.473709	-1.073841	-994.596863	
68.086868	-1.029888	-994.347534	
68.718025	-0.943675	-994.261536	
69.332916	-0.894010	-994.320068	
69.905312	-0.849113	-994.002441	
70.515160	-0.780966	-994.020325	
71.115982	-0.733882	-993.930420	
71.696533	-0.671192	-993.583923	
72.312927	-0.605400	-993.784729	
72.889938	-0.538162	-993.471313	
73.507477	-0.472812	-993.435059	
74.097656	-0.407403	-993.457397	
74.690804	-0.339136	-993.497681	
75.278908	-0.279283	-993.497192	
75.788971	-0.232639	-993.273865	
76.359970	-0.157446	-993.357178	
76.936455	-0.090446	-993.344849	
77.479469	-0.020120	-993.324402	
78.079979	0.032104	-993.390198	
78.599709	0.094733	-993.227295	
79.184074	0.160265	-993.335815	
79.729088	0.235174	-993.159973	
80.292961	0.303344	-993.189514	
80.847069	0.371385	-993.575928	
81.337746	0.430808	-993.317627	
81.898682	0.504236	-993.462463	
82.411530	0.564257	-993.223816	
82.951332	0.641443	-993.413574	
83.514023	0.690896	-993.700012	
84.028427	0.755599	-993.487488	
84.605804	0.826926	-993.898560	
85.142670	0.914059	-993.897888	
85.665352	0.973982	-993.852234	
86.197334	1.037233	-994.183716	
86.656548	1.092709	-994.037537	
87.185516	1.163866	-994.235352	
87.703156	1.243850	-994.416443	
88.212906	1.299348	-994.452820	
88.760452	1.376825	-994.817078	
89.231842	1.453699	-994.472656	
89.778404	1.517907	-994.929443	
90.281197	1.587027	-994.961914	
90.790489	1.660677	-995.168152	
91.301559	1.740215	-995.391846	
91.754265	1.788234	-995.524536	
92.263420	1.866084	-995.621765	
92.760941	1.932159	-995.878784	
93.239014	1.991780	-995.981079	
93.763107	2.087375	-996.373901	
94.250420	2.143561	-996.489746	
94.764397	2.212485	-996.639343	
95.256645	2.280831	-996.802917	
95.769234	2.358824	-996.762268	
96.350220	2.423601	-997.270325	
96.794388	2.496695	-996.990906	
97.284859	2.576880	-997.266785	
97.762726	2.645540	-997.511719	
98.229744	2.711016	-997.823730	
98.698936	2.788972	-998.094971	
99.166924	2.861735	-998.263367	
99.658348	2.936580	-998.483582	
100.136726	3.006202	-998.780212	
100.596336	3.094347	-999.092407	
101.054832	3.167166	-999.533386	
101.483200	3.239505	-999.754272	
101.953156	3.309147	-1000.007690	
102.413033	3.386700	-1000.258057	
102.874626	3.457967	-1000.575256	
103.348030	3.548729	-1000.948730	
103.788109	3.613971	-1001.116760	
104.266327	3.696075	-1001.711426	
104.736214	3.785779	-1001.830078	
105.199783	3.861936	-1002.270020	
105.637245	3.933773	-1002.504578	
106.041069	3.988112	-1002.822510	
106.486244	4.068971	-1003.215454	
106.937050	4.155940	-1003.692749	
107.380516	4.233379	-1004.002991	
107.881538	4.309789	-1004.507446	
108.332787	4.382999	-1004.394653	
108.788536	4.466582	-1004.734253	
109.232300	4.558370	-1005.183716	
109.667534	4.645771	-1005.742371	
110.114243	4.716145	-1006.311340	
110.502693	4.792356	-1006.652893	
110.921738	4.878573	-1007.038696	
111.345673	4.960851	-1007.501343	
111.751900	5.053688	-1007.881775	
112.192223	5.130177	-1008.619995	
112.586090	5.224526	-1008.866577	
113.016205	5.318190	-1009.579773	
113.382515	5.403292	-1010.444458	
113.724625	5.475303	-1011.094604	
114.116829	5.566121	-1011.858765	
114.483490	5.665765	-1012.185852	
114.877632	5.748437	-1012.806885	
115.269485	5.845597	-1013.404297	
115.634193	5.934975	-1013.887329	
116.029366	6.011623	-1014.697632	
116.410019	6.108791	-1015.228271	
116.790237	6.232841	-1015.765808	
117.168129	6.319215	-1016.506165	
117.548492	6.414308	-1017.267822	
117.905724	6.516720	-1017.985596	
118.594101	6.707961	-1019.492676	
118.934090	6.800374	-1020.261658	
119.275154	6.898461	-1021.046814	
119.626823	7.007159	-1021.984375	
119.948555	7.115258	-1022.818237	
120.259735	7.213322	-1023.462708	
120.588051	7.302779	-1024.121094	
120.906532	7.434237	-1024.947998	
36.346886	-2.301985	-1019.899475	
37.531487	-2.323515	-1015.574341	
38.670296	-2.288297	-1014.707275	
39.988758	-2.290998	-1013.808167	
41.210217	-2.272677	-1011.763062	
42.415634	-2.239280	-1009.970215	
43.553604	-2.155101	-1007.958130	
44.793888	-2.233278	-1007.805969	
45.864197	-2.187353	-1006.137939	
46.759880	-2.157414	-1005.253662	
47.666466	-2.098631	-1004.211365	
48.665478	-2.067254	-1003.614441	
49.438332	-2.012942	-1003.088562	
50.197132	-2.004740	-1002.772034	
50.859844	-1.891218	-1002.364258	
51.528564	-1.793777	-1001.659363	
52.332832	-1.763266	-1001.084656	
53.063660	-1.720259	-1000.779297	
53.849518	-1.668551	-1000.223022	
54.611706	-1.613487	-999.770325	
55.373577	-1.554736	-999.383911	
56.112720	-1.514856	-999.082275	
56.757786	-1.451426	-998.482910	
57.507038	-1.430433	-998.238586	
58.208714	-1.372499	-997.911865	
58.897762	-1.308898	-997.189575	
59.632954	-1.263139	-997.273376	
60.314743	-1.196836	-996.981567	
61.022282	-1.145651	-996.650757	
61.669540	-1.067997	-996.044189	
62.318913	-1.024914	-996.071838	
62.981968	-0.971334	-995.868713	
63.576305	-0.912743	-995.840759	
64.251778	-0.853706	-995.402405	
64.874458	-0.800636	-995.303955	
65.513512	-0.724024	-994.914673	
66.171425	-0.666520	-994.728821	
66.775856	-0.616183	-994.606384	
67.427597	-0.547500	-994.488220	
68.054901	-0.512271	-994.459961	
68.677673	-0.444042	-994.275146	
69.283722	-0.374817	-993.992126	
69.849884	-0.320332	-993.828003	
70.476044	-0.251317	-993.989502	
71.065605	-0.205096	-993.698730	
71.647125	-0.149931	-993.542053	
72.287430	-0.072234	-993.904663	
72.854378	0.008912	-993.430847	
73.463196	0.063952	-993.076294	
74.053856	0.126520	-993.075806	
74.652519	0.190943	-993.128479	
75.239677	0.250763	-993.120605	
75.764923	0.328294	-993.215698	
76.338516	0.371200	-993.170410	
76.887611	0.445185	-993.273010	
77.445358	0.509547	-993.225342	
78.032288	0.561758	-993.439819	
78.558075	0.626080	-993.104736	
79.149956	0.686116	-993.230164	
79.706512	0.766862	-993.110596	
80.263702	0.833028	-993.068665	
80.807098	0.902927	-993.233704	
81.306602	0.957181	-993.214050	
81.864990	1.025200	-993.496643	
82.393143	1.088959	-993.490723	
82.930313	1.152526	-993.358093	
83.481346	1.209611	-993.663696	
83.986923	1.278660	-993.429443	
84.582848	1.356870	-993.738770	
85.115997	1.427418	-993.858887	
85.615379	1.490260	-993.630676	
86.165466	1.547679	-993.962280	
86.624710	1.631666	-993.826294	
87.157219	1.698153	-994.077759	
87.662560	1.774089	-994.168213	
88.182465	1.832318	-994.344360	
88.728783	1.905336	-994.562805	
89.202850	1.965469	-994.503174	
89.744431	2.048677	-994.782776	
90.248466	2.102558	-994.960388	
90.758636	2.185145	-994.999634	
91.257362	2.250979	-995.232117	
91.727798	2.329231	-995.491577	
92.234207	2.380216	-995.588379	
92.726288	2.448885	-995.741516	
93.205399	2.536199	-995.716736	
93.728592	2.600271	-996.108643	
94.208595	2.672297	-996.257446	
94.744514	2.734372	-996.600830	
95.232635	2.823779	-996.525635	
95.751915	2.892869	-996.806152	
96.279037	2.979311	-996.803467	
96.750038	3.026160	-996.961182	
97.247658	3.109112	-997.211121	
97.711143	3.167320	-997.409058	
98.172989	3.247413	-997.479919	
98.660439	3.324990	-997.861450	
99.121109	3.393243	-998.065552	
99.607185	3.458321	-998.224548	
100.094574	3.546484	-998.601685	
100.567642	3.602234	-998.958740	
101.030487	3.678699	-999.332520	
101.446213	3.748006	-999.455200	
101.915787	3.828199	-999.950195	
102.379593	3.914986	-1000.213318	
102.840355	3.976898	-1000.414978	
103.306404	4.064559	-1000.669800	
103.741768	4.152410	-1000.989441	
104.224297	4.237367	-1001.469604	
104.684242	4.307285	-1001.674622	
105.132179	4.388550	-1001.973816	
105.589760	4.475483	-1002.620728	
105.991287	4.545073	-1002.819092	
106.437889	4.619346	-1003.256592	
106.872635	4.698156	-1003.675659	
107.310677	4.780663	-1003.806091	
107.793785	4.845272	-1004.298157	
108.255974	4.899928	-1004.272949	
108.749619	4.983289	-1004.699219	
109.192200	5.090466	-1005.019653	
109.627197	5.170755	-1005.535095	
110.051643	5.248904	-1006.052856	
110.457024	5.341771	-1006.392761	
110.880798	5.422939	-1006.947876	
111.302910	5.506055	-1007.453735	
111.699257	5.579357	-1007.886780	
112.126785	5.658027	-1008.475220	
112.527817	5.743499	-1008.902527	
112.930084	5.808878	-1009.660767	
113.302750	5.889430	-1010.338745	
113.687332	6.003487	-1010.939758	
114.077309	6.111295	-1011.638855	
114.449074	6.206873	-1012.142517	
114.850388	6.286045	-1012.746033	
115.221703	6.360697	-1013.226013	
115.606209	6.435980	-1013.674988	
116.003708	6.561055	-1014.435242	
116.381393	6.646763	-1015.067566	
116.784325	6.743001	-1015.837219	
117.154465	6.825692	-1016.314758	
117.525368	6.910755	-1016.979980	
117.888725	7.044668	-1017.707092	
118.213593	7.144031	-1018.291992	
118.572418	7.232247	-1019.258606	
118.926636	7.325552	-1020.211060	
119.255882	7.439814	-1020.871033	
119.593025	7.524651	-1021.817139	
119.907219	7.617754	-1022.621399	
120.229172	7.744036	-1023.377197	
120.559929	7.851904	-1024.134399	
120.880524	7.958349	-1024.971191	
121.152626	8.027508	-1025.088257	
37.394966	-1.777209	-1016.344482	
38.532936	-1.736487	-1015.858032	
39.958267	-1.742086	-1013.489990	
41.129993	-1.742210	-1011.428833	
42.329445	-1.702751	-1010.418030	
43.489784	-1.635283	-1009.100098	
44.772358	-1.730328	-1007.088745	
45.835888	-1.657975	-1006.358398	
46.718742	-1.592675	-1005.149780	
47.609474	-1.619606	-1004.196350	
48.563850	-1.516485	-1003.670410	
49.322033	-1.500770	-1003.322449	
50.048992	-1.443343	-1002.637146	
50.721436	-1.345577	-1002.199402	
51.430531	-1.281620	-1001.462891	
52.267853	-1.221557	-1001.745239	
52.989014	-1.183589	-1000.608704	
53.787048	-1.148980	-1000.365417	
54.535351	-1.072603	-999.634827	
55.318481	-1.031640	-999.413513	
56.056774	-0.977110	-998.544434	
56.704342	-0.951889	-998.482300	
57.475842	-0.899008	-998.126282	
58.173874	-0.845536	-997.789856	
58.849136	-0.780944	-997.659058	
59.562687	-0.739631	-996.939331	
60.290871	-0.694521	-997.185242	
60.991207	-0.600620	-996.716858	
61.628361	-0.566669	-996.010071	
62.286247	-0.500425	-996.013062	
62.952641	-0.431481	-995.859680	
63.544270	-0.375179	-995.612061	
64.200783	-0.323166	-995.389954	
64.827019	-0.285755	-995.060913	
65.468773	-0.230466	-994.706726	
66.132454	-0.144886	-994.721252	
66.749817	-0.092279	-994.747070	
67.394470	-0.035303	-994.299194	
68.008362	0.020266	-994.229980	
68.646538	0.075880	-994.278076	
69.262444	0.168501	-993.717651	
69.835152	0.201809	-993.954895	
70.441536	0.252706	-993.750427	
71.027428	0.313947	-993.546570	
71.616997	0.390405	-993.438171	
72.236877	0.450507	-993.327332	
72.813660	0.508350	-993.204956	
73.438324	0.566747	-993.157288	
74.031090	0.630386	-993.312683	
74.619003	0.716899	-993.140686	
75.200264	0.756107	-993.178650	
75.728539	0.806450	-993.310608	
76.301849	0.872033	-993.153503	
76.846855	0.946123	-993.018005	
77.409081	1.011814	-992.938049	
77.991425	1.081924	-993.142090	
78.517021	1.136128	-992.872192	
79.114182	1.203467	-993.087952	
79.673180	1.270198	-993.220093	
80.240562	1.347407	-993.141479	
80.777519	1.403111	-993.244019	
81.270920	1.468836	-993.124695	
81.829514	1.547054	-993.264832	
82.354027	1.616171	-993.240662	
82.885696	1.669410	-993.355957	
83.448730	1.744489	-993.500183	
83.953560	1.805809	-993.285522	
84.534286	1.873967	-993.575134	
85.074760	1.950819	-993.669434	
85.603981	2.007873	-993.674072	
86.137939	2.071867	-994.036194	
86.598022	2.140018	-993.855774	
87.130646	2.209126	-994.129089	
87.639191	2.293440	-994.130310	
88.148804	2.344086	-994.169617	
88.692070	2.405587	-994.466797	
89.162872	2.496359	-994.344910	
89.695404	2.546409	-994.512085	
90.206497	2.615529	-994.787598	
90.728340	2.704275	-995.042908	
91.225998	2.771182	-995.136353	
91.691757	2.834022	-995.323608	
92.189705	2.894218	-995.470398	
92.682037	2.986270	-995.544250	
93.186348	3.050349	-996.027710	
93.686302	3.117735	-996.007385	
94.164688	3.181094	-996.132690	
94.697250	3.244251	-996.387268	
95.225922	3.340173	-996.424377	
95.767403	3.424117	-996.572205	
96.268089	3.461833	-996.707336	
96.728325	3.543488	-996.837830	
97.215225	3.626096	-997.075562	
97.682137	3.657763	-997.300476	
98.146034	3.742165	-997.433289	
98.632538	3.828365	-997.818481	
99.073830	3.910123	-997.988220	
99.574890	3.976121	-998.245178	
100.059196	4.061788	-998.531616	
100.520836	4.132002	-998.622620	
101.003471	4.193485	-999.232178	
101.416458	4.255907	-999.325745	
101.898193	4.344497	-999.843567	
102.348228	4.410855	-1000.073181	
102.804619	4.483822	-1000.425232	
103.289291	4.589125	-1000.826111	
103.720795	4.645918	-1000.881470	
104.197975	4.729476	-1001.346924	
104.655212	4.831472	-1001.587646	
105.099007	4.885329	-1001.809692	
105.557739	4.980179	-1002.484863	
105.946716	5.058567	-1002.640991	
106.405144	5.147746	-1003.331116	
106.832787	5.195004	-1003.515320	
107.280151	5.280876	-1004.060730	
107.739502	5.373479	-1004.366211	
108.179070	5.429570	-1004.464417	
108.686195	5.512681	-1004.603577	
109.156296	5.590428	-1004.906921	
109.600960	5.688172	-1005.375610	
110.020844	5.765599	-1005.904663	
110.416771	5.847132	-1006.176575	
110.838394	5.927701	-1006.748169	
111.240540	6.012378	-1007.392578	
111.619385	6.089974	-1008.014587	
112.052780	6.163383	-1008.750244	
112.432594	6.241328	-1008.966003	
112.830154	6.337719	-1009.384460	
113.243011	6.449093	-1010.188843	
113.645828	6.549496	-1010.813171	
114.036331	6.631780	-1011.405823	
114.393044	6.717244	-1011.749573	
114.811310	6.806323	-1012.593262	
115.194214	6.890148	-1013.088806	
115.576180	6.966321	-1013.562012	
115.979637	7.065733	-1014.299438	
116.351791	7.160903	-1014.809753	
116.740341	7.274997	-1015.444153	
117.112907	7.354999	-1016.066895	
117.482666	7.454471	-1016.694702	
117.875763	7.545636	-1017.803101	
118.542892	7.725739	-1019.084961	
118.882233	7.825800	-1019.779724	
119.228462	7.938880	-1020.686157	
119.575836	8.030235	-1021.723938	
119.892487	8.136384	-1022.443359	
120.227196	8.245420	-1023.303772	
120.541992	8.347337	-1024.118286	
120.846756	8.446174	-1024.731201	
37.208187	-1.180361	-1017.185120	
38.420589	-1.200156	-1016.662537	
39.815689	-1.147145	-1014.410461	
41.056393	-1.215871	-1012.133606	
42.235748	-1.178115	-1011.106934	
43.548119	-1.134474	-1008.020813	
44.712746	-1.200414	-1007.209106	
45.758476	-1.116163	-1006.009155	
46.664898	-1.085695	-1005.194641	
47.457066	-1.051386	-1004.189148	
48.439022	-0.999699	-1003.586975	
49.161983	-0.955892	-1003.499268	
49.888554	-0.870304	-1002.835938	
50.605709	-0.812340	-1001.905396	
51.387356	-0.759927	-1001.739441	
52.202415	-0.693121	-1001.532898	
52.946400	-0.692945	-1001.144653	
53.730713	-0.590608	-1000.349243	
54.492378	-0.559436	-999.682312	
55.243221	-0.512669	-998.832825	
55.993515	-0.484831	-998.705200	
56.655319	-0.434488	-998.356445	
57.398483	-0.374929	-998.255798	
58.124619	-0.328413	-997.842712	
58.817814	-0.271447	-997.403625	
59.528034	-0.236547	-997.198120	
60.238037	-0.153900	-996.476074	
60.937641	-0.100501	-996.547119	
61.587467	-0.035239	-995.851440	
62.240562	0.007133	-995.901733	
62.901566	0.079067	-995.658264	
63.501461	0.125008	-995.220398	
64.165947	0.194913	-995.658630	
64.805321	0.239680	-995.027710	
65.432434	0.304070	-994.891296	
66.097321	0.350172	-994.922241	
66.696922	0.406319	-994.417603	
67.345535	0.472642	-994.230957	
67.971161	0.521775	-994.098755	
68.608482	0.608241	-993.966187	
69.226341	0.662443	-993.915833	
69.780190	0.719188	-993.604553	
70.398491	0.789854	-993.669678	
70.994507	0.823603	-993.552429	
71.577698	0.890850	-993.229126	
72.202660	0.952247	-993.505798	
72.764656	1.030344	-993.051208	
73.392761	1.088299	-993.019226	
73.988579	1.138501	-993.112915	
74.589539	1.211759	-992.980774	
75.158348	1.282457	-993.054138	
75.680992	1.323961	-992.916687	
76.264107	1.405712	-992.991699	
76.823135	1.472395	-992.927246	
77.371101	1.536224	-992.867310	
77.956764	1.577356	-993.012268	
78.496201	1.657706	-992.789612	
79.080345	1.708742	-993.076111	
79.628403	1.793522	-992.881042	
80.197113	1.866710	-993.045044	
80.743919	1.921135	-993.032166	
81.228569	1.981715	-993.017212	
81.777824	2.045832	-993.127136	
82.314987	2.110885	-993.244019	
82.856514	2.202099	-993.249207	
83.411118	2.263350	-993.450928	
83.930992	2.307331	-993.301453	
84.510681	2.385632	-993.624207	
85.044579	2.442540	-993.745911	
85.564476	2.521668	-993.625427	
86.096138	2.587793	-993.675293	
86.545883	2.648493	-993.518311	
87.087463	2.715381	-993.893127	
87.599174	2.802910	-993.885132	
88.088814	2.839022	-993.898804	
88.652580	2.928638	-994.245911	
89.134659	2.996578	-994.340698	
89.660759	3.073364	-994.513184	
90.166992	3.129972	-994.594482	
90.678749	3.202883	-994.725464	
91.183884	3.279573	-994.996765	
91.659447	3.355119	-995.149902	
92.148155	3.421753	-995.308594	
92.642036	3.482438	-995.552063	
93.144104	3.567167	-995.639221	
93.647301	3.626172	-995.853760	
94.127365	3.690617	-996.063599	
94.665276	3.766796	-996.317688	
95.214302	3.812643	-996.202332	
95.762123	3.904333	-996.395325	
96.250648	3.943218	-996.698914	
96.685989	4.038854	-996.653625	
97.191170	4.121906	-997.151184	
97.651733	4.192842	-997.210632	
98.122711	4.269279	-997.421387	
98.611519	4.341287	-997.776855	
99.057640	4.409343	-997.900696	
99.544838	4.496146	-998.224304	
99.998444	4.582823	-998.437500	
100.488525	4.640292	-998.605347	
100.971397	4.699237	-999.131042	
101.387833	4.768343	-999.291565	
101.851570	4.859493	-999.632751	
102.303963	4.936767	-999.845764	
102.759697	5.018876	-1000.051575	
103.260094	5.102400	-1000.768188	
103.698006	5.176286	-1000.763000	
104.176422	5.246174	-1001.141663	
104.609222	5.335825	-1001.327576	
105.079338	5.415578	-1001.894348	
105.525230	5.488315	-1002.361755	
105.922722	5.564456	-1002.541992	
106.361198	5.627061	-1002.993164	
106.808487	5.716502	-1003.529236	
107.234177	5.795199	-1003.714783	
107.690277	5.889421	-1004.258606	
108.115097	5.957142	-1004.345276	
108.598068	6.031168	-1004.603210	
109.088654	6.111928	-1004.930237	
109.551880	6.177378	-1005.336609	
109.978767	6.274454	-1005.841858	
110.378433	6.357591	-1006.264221	
110.790833	6.444367	-1006.764526	
111.165581	6.519705	-1007.461853	
111.535973	6.617584	-1008.118958	
111.964638	6.697453	-1008.801880	
112.358063	6.773443	-1009.023132	
112.786400	6.873861	-1009.641785	
113.200851	6.976867	-1010.078918	
113.611526	7.070061	-1010.655640	
113.991486	7.147800	-1011.155396	
114.347733	7.226762	-1011.568787	
114.779594	7.319184	-1012.607605	
115.152824	7.411935	-1012.913696	
115.535255	7.504806	-1013.408997	
115.947868	7.592032	-1014.187988	
116.317123	7.678430	-1014.625366	
116.704109	7.769833	-1015.192871	
117.080498	7.874486	-1015.913269	
117.450546	7.977378	-1016.570129	
117.822411	8.073409	-1017.487183	
118.158424	8.170643	-1018.119568	
118.510239	8.256852	-1018.880371	
118.863907	8.383262	-1019.804688	
119.187599	8.462526	-1020.439697	
119.539993	8.529970	-1021.454834	
119.873344	8.640887	-1022.363464	
120.205566	8.782256	-1023.340149	
120.492180	8.887664	-1023.874634	
120.805717	8.995507	-1024.638184	
37.047123	-0.666259	-1017.189270	
38.266491	-0.655351	-1014.550354	
39.727482	-0.633867	-1013.799011	
40.933018	-0.648969	-1011.364441	
42.149174	-0.592553	-1009.920715	
44.666466	-0.594622	-1007.214661	
45.717354	-0.579031	-1005.725464	
46.593655	-0.551092	-1005.237122	
47.371067	-0.481714	-1004.948059	
48.208183	-0.461547	-1003.230408	
48.957954	-0.399005	-1003.538025	
49.753529	-0.322818	-1002.709534	
50.510254	-0.269824	-1002.006775	
51.310410	-0.209481	-1002.110352	
52.150883	-0.197896	-1001.569580	
52.888233	-0.135081	-1000.926880	
53.679443	-0.076257	-999.895508	
54.438023	-0.022485	-999.400513	
55.202435	-0.009483	-998.929443	
55.933151	0.058699	-999.069458	
56.608120	0.090446	-998.322449	
57.355320	0.154264	-998.240967	
58.069557	0.233080	-997.941528	
58.762939	0.264071	-997.095947	
59.491936	0.316662	-997.078918	
60.190155	0.363332	-996.666443	
60.899143	0.437705	-996.658081	
61.554600	0.488785	-995.935120	
62.201279	0.531755	-995.674805	
62.866188	0.592446	-995.509949	
63.462105	0.667580	-995.532715	
64.125237	0.719481	-995.242493	
64.763458	0.761872	-995.018738	
65.379730	0.833067	-994.613831	
66.048203	0.883423	-994.594543	
66.647743	0.950601	-994.347656	
67.309654	1.022343	-994.141785	
67.926682	1.072291	-994.085327	
68.560364	1.136047	-993.725159	
69.182526	1.200614	-994.025208	
69.739052	1.227373	-993.509949	
70.357590	1.294843	-993.820801	
70.963188	1.364912	-993.470825	
71.549324	1.427233	-993.406067	
72.163460	1.492826	-993.162903	
72.727539	1.552823	-992.964478	
73.360962	1.613408	-993.209106	
73.942139	1.672932	-993.011353	
74.545639	1.738014	-992.963806	
75.115059	1.805301	-992.904968	
75.646790	1.867578	-993.047913	
76.222443	1.914867	-992.972595	
76.786316	1.996355	-992.876404	
77.331177	2.034123	-992.729065	
77.923279	2.108067	-992.915710	
78.454468	2.168233	-992.833374	
79.053223	2.233278	-992.924377	
79.590912	2.303123	-992.802979	
80.158607	2.373758	-992.663208	
80.699821	2.454621	-993.002380	
81.203163	2.504172	-992.926147	
81.741783	2.583236	-992.870117	
82.276733	2.636946	-992.982605	
82.813141	2.698284	-993.143616	
83.373390	2.754300	-993.390198	
83.883240	2.842846	-993.145203	
84.479492	2.898567	-993.349487	
85.019211	2.967745	-993.484741	
85.522049	3.051107	-993.374390	
86.071281	3.105335	-993.819336	
86.516205	3.186508	-993.488037	
87.063080	3.251517	-993.829895	
87.567184	3.325207	-993.922119	
88.056480	3.377156	-993.857056	
88.621559	3.445490	-994.421814	
89.096756	3.529321	-994.251770	
89.624001	3.585854	-994.517822	
90.126610	3.657027	-994.537842	
90.642189	3.728859	-994.736816	
91.152573	3.796774	-995.022827	
91.612267	3.857763	-995.031738	
92.121910	3.926176	-995.359497	
92.610062	4.012519	-995.290955	
93.103119	4.081688	-995.416382	
93.616310	4.166813	-995.862610	
94.081314	4.224361	-996.057678	
94.629189	4.277497	-996.357788	
95.176010	4.285994	-996.372498	
95.704201	4.357224	-995.932983	
96.210732	4.466581	-996.290894	
96.653206	4.546135	-996.448914	
97.134964	4.635860	-996.705872	
97.618599	4.711589	-997.079895	
98.085640	4.790503	-997.214844	
98.573380	4.864284	-997.500183	
99.030846	4.943882	-997.758240	
99.512299	5.001219	-998.060242	
99.982155	5.097913	-998.541077	
100.445427	5.151087	-998.702759	
100.911087	5.220425	-998.977051	
101.349991	5.300844	-999.168213	
101.828865	5.376446	-999.684265	
102.275909	5.446194	-999.714050	
102.727493	5.543946	-999.999329	
103.219795	5.617006	-1000.540649	
103.657936	5.696140	-1000.567139	
104.138138	5.773951	-1001.080566	
104.597687	5.849721	-1001.387207	
105.056061	5.934731	-1001.839478	
105.489349	5.996558	-1002.057678	
105.888092	6.079747	-1002.445190	
106.332214	6.152174	-1002.902771	
106.768791	6.228544	-1003.283630	
107.196541	6.311707	-1003.484436	
107.656441	6.404903	-1004.157837	
108.069458	6.491097	-1004.407715	
108.530098	6.566245	-1004.658203	
108.993279	6.638769	-1005.032593	
109.456184	6.705434	-1005.397705	
109.916924	6.787760	-1005.822510	
110.304863	6.854041	-1006.121887	
110.725449	6.932083	-1006.934998	
111.105911	7.010475	-1007.588440	
111.490921	7.137334	-1008.066528	
111.910332	7.239121	-1008.571899	
112.308372	7.317711	-1008.975098	
112.716423	7.430569	-1009.245483	
113.148582	7.506955	-1009.913330	
113.573013	7.596042	-1010.487854	
113.972336	7.675369	-1011.144897	
114.331932	7.744467	-1011.619568	
114.738640	7.844023	-1012.390564	
115.115387	7.933164	-1012.925232	
115.507202	8.038105	-1013.509033	
115.897713	8.140310	-1014.119812	
116.285866	8.231391	-1014.595215	
116.666504	8.328973	-1015.190674	
117.055412	8.426972	-1015.982544	
117.425026	8.520191	-1016.571228	
117.790863	8.623312	-1017.383545	
118.119385	8.718163	-1017.911194	
118.474678	8.817911	-1018.696655	
118.818764	8.913777	-1019.530701	
119.153053	9.001815	-1020.408386	
119.501976	9.107551	-1021.352600	
120.163399	9.319145	-1023.218079	
120.769157	9.536243	-1024.602539	
121.060799	9.637495	-1024.977173	
36.931801	-0.100427	-1017.997131	
38.180630	-0.058245	-1014.390808	
40.893044	-0.075889	-1012.169006	
42.045338	-0.020964	-1009.276062	
44.574844	-0.014123	-1007.195435	
45.606316	-0.015107	-1006.190918	
46.513508	-0.000269	-1004.990967	
47.295231	0.070149	-1004.364868	
48.089146	0.164374	-1003.859009	
48.809296	0.175515	-1003.672729	
49.643810	0.264964	-1002.722595	
50.443676	0.280962	-1002.167542	
51.230320	0.337737	-1002.125122	
52.084389	0.374940	-1001.413025	
52.837696	0.413794	-1000.712341	
53.641087	0.461899	-999.898682	
54.376122	0.500177	-999.449219	
55.149506	0.553676	-999.866150	
55.890049	0.601996	-999.033813	
56.544102	0.646116	-998.621887	
57.309814	0.715679	-998.272217	
58.017712	0.761387	-997.717957	
58.702168	0.831611	-997.420593	
59.431648	0.887611	-996.882813	
60.127159	0.900927	-996.163025	
60.868893	0.980130	-996.561646	
61.511814	1.029027	-995.944519	
62.162731	1.106043	-995.543823	
62.821548	1.147000	-995.498596	
63.419510	1.195207	-995.269165	
64.076225	1.252121	-995.303345	
64.714211	1.308108	-994.771423	
65.331726	1.376113	-994.779541	
66.012711	1.427956	-994.585999	
66.608452	1.489011	-994.103638	
67.260025	1.562983	-994.084778	
67.889320	1.603778	-993.995789	
68.520103	1.673220	-993.722107	
69.129967	1.738501	-993.843933	
69.694862	1.789400	-993.573486	
70.317970	1.855802	-993.567871	
70.913513	1.929800	-993.322693	
71.499901	1.957026	-993.079773	
72.119476	2.026477	-993.136108	
72.691994	2.061722	-993.018860	
73.313042	2.146271	-993.179260	
73.902748	2.200210	-992.969849	
74.505486	2.269404	-992.909607	
75.084435	2.335253	-992.802734	
75.598320	2.398673	-992.771423	
76.170609	2.456675	-992.837830	
76.730965	2.520311	-992.526062	
77.293106	2.587714	-992.691162	
77.886772	2.651309	-992.794006	
78.411621	2.722163	-992.594238	
79.003540	2.786821	-992.645996	
79.556282	2.851392	-992.679749	
80.104912	2.928605	-992.777283	
80.663963	2.979701	-992.922485	
81.159920	3.036461	-992.872986	
81.710632	3.103111	-992.976990	
82.245262	3.165613	-992.922119	
82.780464	3.237413	-993.124878	
83.337852	3.293331	-993.081116	
83.831146	3.376554	-992.781860	
84.446625	3.454529	-993.379089	
84.972900	3.515009	-993.287109	
85.478363	3.574047	-993.188843	
86.003288	3.647552	-993.428711	
86.472031	3.727863	-993.447510	
87.014595	3.780791	-993.773926	
87.522820	3.846340	-993.656067	
88.023140	3.924388	-993.690125	
88.564034	3.981002	-994.048096	
89.060120	4.038406	-994.177917	
89.588516	4.124955	-994.382263	
90.096359	4.188962	-994.454590	
90.612015	4.248871	-994.510925	
91.109718	4.331600	-994.777710	
91.582748	4.401271	-995.022705	
92.084122	4.475338	-995.159424	
92.584953	4.553362	-995.451965	
93.069389	4.618138	-995.564270	
93.563133	4.677307	-995.727112	
94.052185	4.752201	-995.914978	
94.585587	4.827485	-996.307251	
95.103157	4.918308	-997.036438	
95.531197	4.971035	-995.772156	
96.173599	5.029198	-995.995605	
96.615479	5.096402	-996.311768	
97.098137	5.176532	-996.554443	
97.566772	5.240448	-996.839783	
98.047653	5.310478	-996.997314	
98.559753	5.408883	-997.693909	
98.993622	5.488614	-997.627625	
99.475090	5.528189	-997.993896	
99.950958	5.633330	-998.173462	
100.418549	5.700938	-998.600647	
100.885315	5.768687	-998.963989	
101.310783	5.847529	-998.993103	
101.788330	5.916793	-999.395752	
102.242889	5.984547	-999.767578	
102.692200	6.080246	-999.868408	
103.185211	6.154410	-1000.399841	
103.618958	6.225733	-1000.466675	
104.101357	6.314735	-1001.001709	
104.560608	6.388114	-1001.141663	
105.005173	6.472471	-1001.621094	
105.455322	6.551126	-1002.175415	
105.854698	6.629994	-1002.387573	
106.296326	6.692290	-1002.827271	
106.722969	6.768963	-1003.036743	
107.167892	6.855330	-1003.529053	
107.630592	6.947844	-1004.015930	
108.037651	7.031658	-1004.198975	
108.479904	7.136317	-1004.671997	
108.925186	7.200813	-1005.066162	
109.375076	7.287428	-1005.574707	
109.815163	7.357217	-1005.965698	
110.202477	7.423815	-1006.172058	
110.627716	7.481931	-1006.782776	
111.026642	7.580358	-1007.191528	
111.435295	7.687042	-1007.692871	
111.861557	7.783252	-1008.358643	
112.265297	7.855975	-1008.881714	
112.698936	7.961534	-1009.385681	
113.107506	8.027693	-1009.863037	
113.516083	8.130033	-1010.305786	
113.925064	8.218575	-1010.885864	
114.295616	8.296999	-1011.262024	
114.705360	8.393590	-1012.026794	
115.089554	8.496320	-1012.713806	
115.467888	8.587283	-1013.345337	
115.866310	8.691875	-1014.136963	
116.221931	8.774799	-1014.457825	
116.621857	8.855445	-1015.142944	
117.009789	8.963025	-1015.831482	
117.383636	9.050385	-1016.480591	
117.751053	9.138642	-1017.312683	
118.081627	9.239733	-1017.916077	
118.433189	9.344032	-1018.733398	
118.775902	9.419638	-1019.556702	
119.114174	9.524360	-1020.333435	
119.457718	9.657184	-1021.237915	
119.794212	9.775121	-1022.120850	
120.106514	9.874430	-1022.755310	
120.435860	9.967806	-1023.918823	
120.734749	10.065855	-1024.819214	
121.004120	10.184050	-1025.211670	
121.223381	10.248499	-1024.114014	
36.745068	0.545404	-1018.757080	
37.991486	0.593122	-1016.915039	
39.473328	0.522593	-1013.060547	
40.797207	0.526064	-1011.404602	
41.955116	0.495958	-1009.613647	
43.190117	0.499528	-1008.051392	
44.479176	0.573747	-1007.570313	
45.527176	0.572722	-1006.019531	
46.398811	0.607461	-1005.408386	
47.181137	0.668842	-1004.704041	
47.993889	0.726886	-1003.977539	
48.716835	0.761709	-1004.013855	
49.567757	0.826892	-1002.580994	
50.366650	0.845965	-1002.131958	
51.171562	0.898883	-1001.504944	
52.003128	0.957885	-1001.257996	
52.767174	0.994172	-1000.612915	
53.570656	1.046795	-999.911072	
54.317677	1.084756	-999.474792	
55.084473	1.136926	-999.316895	
55.845493	1.166381	-998.645752	
56.497406	1.240569	-998.205017	
57.239849	1.283066	-997.629395	
57.941242	1.311304	-997.591248	
58.647430	1.374371	-996.939087	
59.367580	1.450521	-996.570068	
60.060577	1.503724	-996.502441	
60.821453	1.556173	-996.648682	
61.467892	1.589628	-995.845154	
62.110157	1.648260	-995.288818	
62.775536	1.696058	-995.464783	
63.364876	1.758692	-995.324646	
64.013557	1.831360	-994.825012	
64.658073	1.891733	-994.815979	
65.283524	1.949844	-994.643188	
65.961975	2.005025	-994.627869	
66.560440	2.049482	-994.010254	
67.197929	2.121582	-993.860046	
67.837036	2.204910	-993.744812	
68.461525	2.252860	-993.687439	
69.074524	2.300497	-993.651917	
69.642204	2.338031	-993.346436	
70.262344	2.400793	-993.293945	
70.859428	2.467176	-993.285217	
71.453972	2.536483	-993.012207	
72.077255	2.572155	-993.091492	
72.649826	2.636254	-992.806824	
73.277046	2.719738	-992.872925	
73.859871	2.788370	-992.802124	
74.462456	2.857521	-992.832825	
75.036629	2.915316	-992.775085	
75.563858	2.968845	-992.593079	
76.143288	3.034875	-992.713989	
76.685104	3.086466	-992.512878	
77.247246	3.156380	-992.441467	
77.839294	3.218635	-992.721252	
78.371536	3.296259	-992.587097	
78.950722	3.349746	-992.676025	
79.502144	3.377835	-992.596985	
80.059166	3.491045	-992.603027	
80.615646	3.537368	-992.723328	
81.115570	3.586609	-992.849854	
81.670273	3.647408	-992.831787	
82.210892	3.730819	-992.816833	
82.748039	3.827180	-992.707642	
83.320099	3.915857	-992.761963	
83.833427	3.965196	-992.846191	
84.418427	4.021796	-993.489868	
84.926590	4.076882	-993.139587	
85.425842	4.133577	-992.824158	
85.970520	4.214714	-993.520996	
86.431290	4.277446	-993.349609	
86.969498	4.341645	-993.697754	
87.489174	4.410525	-993.770996	
87.984421	4.470303	-993.777954	
88.530426	4.538376	-994.099426	
89.013763	4.612736	-994.081543	
89.536217	4.671027	-994.079468	
90.049500	4.755909	-994.349304	
90.567429	4.826324	-994.452576	
91.065399	4.901886	-994.442139	
91.525856	4.965477	-994.800842	
92.032379	5.026008	-994.924805	
92.538055	5.096949	-995.336060	
93.022369	5.169158	-995.285034	
93.533440	5.246747	-995.571289	
94.006775	5.312049	-995.677612	
94.563004	5.400150	-996.226807	
95.100014	5.515207	-996.161682	
95.635818	5.591854	-995.979919	
96.137627	5.607990	-996.152893	
96.584885	5.653619	-996.261169	
97.070992	5.718038	-996.685608	
97.536713	5.796042	-996.775452	
98.003326	5.884369	-996.967896	
98.496483	5.960140	-997.374207	
98.950134	6.038914	-997.431274	
99.442986	6.086802	-997.792053	
99.916901	6.185293	-998.125977	
100.383270	6.251555	-998.332947	
100.850830	6.352498	-998.811096	
101.261353	6.402508	-999.021301	
101.753784	6.484699	-999.272644	
102.213753	6.554977	-999.589783	
102.658005	6.641917	-999.785400	
103.138512	6.716019	-1000.412781	
103.574921	6.785422	-1000.344299	
104.058304	6.871457	-1000.779114	
104.514091	6.942024	-1001.037109	
104.953819	7.013357	-1001.447937	
105.395271	7.111431	-1001.972290	
105.805275	7.166199	-1002.333679	
106.254097	7.267341	-1002.662781	
106.689453	7.354354	-1002.951172	
107.142174	7.424412	-1003.344666	
107.585579	7.520772	-1003.785156	
107.994858	7.599545	-1004.073792	
108.444115	7.688219	-1004.551025	
108.889877	7.769176	-1005.166138	
109.311501	7.830060	-1005.359192	
109.754684	7.937583	-1006.043762	
110.143547	8.030559	-1006.275635	
110.569771	8.092647	-1006.660400	
110.986008	8.164617	-1007.096985	
111.386833	8.250304	-1007.447876	
111.827499	8.326478	-1008.203064	
112.228180	8.430031	-1008.681641	
112.658752	8.537991	-1009.156494	
113.074051	8.616441	-1009.847717	
113.475632	8.711182	-1010.322205	
113.893898	8.781316	-1010.829102	
114.266792	8.875098	-1011.235168	
114.672020	8.961438	-1011.978943	
115.048897	9.061605	-1012.510254	
115.431992	9.151275	-1013.105469	
115.829529	9.245912	-1013.878296	
116.201942	9.347410	-1014.538513	
116.569862	9.455254	-1015.097534	
116.938286	9.543733	-1015.612854	
117.323082	9.625074	-1016.304016	
117.708199	9.712045	-1017.160339	
118.034370	9.814303	-1017.634644	
118.394981	9.920297	-1018.500549	
118.724846	10.008600	-1019.229126	
119.059547	10.115820	-1019.958069	
119.414993	10.221654	-1021.012146	
119.736404	10.334267	-1021.730652	
120.068436	10.451914	-1022.653137	
120.386925	10.553772	-1023.747070	
120.670929	10.702767	-1024.442017	
120.945175	10.824410	-1025.020630	
40.596905	1.110048	-1012.718323	
41.853008	1.118957	-1010.721924	
43.005608	1.116420	-1008.723938	
44.207230	1.100371	-1007.740540	
45.369476	1.192923	-1007.188782	
46.244976	1.191274	-1005.651550	
47.047714	1.313972	-1004.734375	
47.899845	1.320432	-1004.349365	
48.636147	1.354838	-1003.508057	
49.503487	1.382335	-1003.150879	
50.304756	1.433400	-1002.363831	
51.095901	1.479428	-1001.165833	
51.952801	1.531571	-1001.053894	
52.699993	1.560829	-1000.360291	
53.490494	1.631924	-999.682068	
54.260830	1.657227	-999.547241	
55.030609	1.698774	-999.134644	
55.778538	1.771470	-998.694336	
56.443695	1.797741	-998.318359	
57.177902	1.847347	-997.624939	
57.887043	1.906823	-997.531250	
58.615131	1.967010	-997.209839	
59.329304	2.018790	-996.648865	
59.976654	2.047518	-996.213257	
60.780312	2.142997	-996.360046	
61.419758	2.174936	-996.011475	
62.075745	2.216462	-995.485596	
62.725418	2.272813	-995.205383	
63.321449	2.322981	-994.806335	
63.979992	2.382558	-994.834045	
64.601181	2.446132	-994.567383	
65.229553	2.478743	-994.422424	
65.912506	2.565610	-994.457947	
66.507607	2.610255	-994.102478	
67.166504	2.664454	-993.864746	
67.801048	2.720576	-993.626648	
68.418625	2.791849	-993.636353	
69.045410	2.833182	-993.604187	
69.615730	2.899323	-993.160767	
70.237976	2.952557	-993.287598	
70.850586	3.032193	-993.197449	
71.437187	3.093588	-992.885925	
72.043793	3.142200	-992.830811	
72.618141	3.213851	-992.681824	
73.225426	3.271228	-992.650940	
73.821350	3.330102	-992.868225	
74.416679	3.396460	-992.547058	
74.998741	3.475161	-992.752441	
75.518105	3.525133	-992.649780	
76.103569	3.599790	-992.679871	
76.659752	3.663844	-992.672424	
77.205673	3.711203	-992.504395	
77.791916	3.789047	-992.358459	
78.320000	3.848126	-992.385620	
78.914452	3.921046	-992.556152	
79.464890	3.970274	-992.587463	
80.018440	4.042116	-992.416748	
80.567902	4.118729	-992.348450	
81.087547	4.182363	-992.682373	
81.650673	4.248808	-992.659058	
82.223633	4.351969	-992.342224	
82.803757	4.392831	-992.398926	
83.374023	4.444777	-992.575928	
83.852394	4.488538	-992.851624	
84.361359	4.555281	-993.220642	
84.888596	4.627689	-993.170654	
85.399574	4.700175	-993.041504	
85.928070	4.781942	-993.305176	
86.392563	4.833702	-993.252197	
86.932266	4.911433	-993.564697	
87.436226	4.966041	-993.471252	
87.950249	5.026257	-993.587097	
88.483871	5.101315	-993.972107	
88.960716	5.172385	-993.892639	
89.497711	5.248883	-993.952087	
90.008888	5.313819	-994.230591	
90.528999	5.378623	-994.431030	
91.041481	5.454621	-994.769775	
91.488289	5.496577	-994.598145	
91.987328	5.589720	-994.610474	
92.484825	5.669391	-994.832092	
92.980766	5.735045	-995.092224	
93.498360	5.791053	-995.456299	
93.968742	5.864580	-995.516541	
94.527809	5.928284	-995.951111	
95.075340	5.986484	-995.715088	
95.595337	6.074471	-996.013367	
96.074997	6.157200	-996.112305	
96.525436	6.208005	-996.085205	
97.036812	6.282887	-996.530151	
97.503960	6.378830	-996.751648	
97.968727	6.429417	-996.902771	
98.458649	6.512486	-997.126526	
98.913788	6.573207	-997.357727	
99.411606	6.658693	-997.853699	
99.867874	6.724685	-997.849243	
100.340645	6.812224	-998.167542	
100.802284	6.898068	-998.557983	
101.229393	6.962738	-998.698059	
101.710762	7.039811	-999.090027	
102.165329	7.106296	-999.306458	
102.615013	7.189289	-999.612854	
103.096573	7.279029	-1000.130432	
103.534210	7.343757	-1000.347107	
104.011879	7.431920	-1000.622681	
104.474037	7.507458	-1001.032166	
104.914146	7.596459	-1001.384155	
105.365883	7.696370	-1001.909668	
105.773529	7.757557	-1002.112183	
106.241341	7.822627	-1002.570740	
106.665154	7.917341	-1002.850525	
107.094589	7.982731	-1003.087708	
107.549881	8.077181	-1003.704895	
107.970665	8.149936	-1004.049316	
108.396889	8.225679	-1004.381653	
108.838631	8.312862	-1004.946106	
109.287254	8.411437	-1005.358154	
109.711937	8.497922	-1005.795776	
110.094261	8.565770	-1006.046143	
110.529999	8.653524	-1006.672180	
110.955391	8.737810	-1007.094421	
111.361359	8.827538	-1007.441956	
111.793564	8.924769	-1008.087952	
112.185684	8.995696	-1008.378113	
112.614937	9.090713	-1008.950623	
113.039604	9.186949	-1009.519104	
113.430695	9.261528	-1010.032776	
113.842575	9.347404	-1010.761353	
114.215324	9.452214	-1011.096863	
114.624252	9.545529	-1011.770630	
115.001694	9.633462	-1012.205811	
115.380051	9.703041	-1012.768921	
115.788185	9.797222	-1013.739258	
116.165138	9.908370	-1014.271118	
116.554031	10.000605	-1014.993896	
116.921265	10.103148	-1015.658203	
117.300423	10.202421	-1016.490906	
117.642151	10.276818	-1017.075745	
117.987885	10.377331	-1017.746887	
118.349503	10.490685	-1018.550598	
118.699280	10.569564	-1019.274414	
119.022362	10.671638	-1019.942566	
119.372360	10.777103	-1020.881897	
119.697655	10.885345	-1021.580383	
120.025742	11.012771	-1022.469177	
120.337265	11.150062	-1023.448364	
120.643311	11.276871	-1024.491333	
120.907982	11.368970	-1025.157349	
37.720844	1.680160	-1015.052856	
39.196373	1.659086	-1013.673767	
40.496803	1.667139	-1010.841492	
41.788723	1.653066	-1010.445251	
42.896889	1.672135	-1008.618164	
43.970566	1.612080	-1007.448242	
45.152431	1.679334	-1006.794067	
46.042091	1.792530	-1005.770691	
46.946323	1.821049	-1004.797607	
47.828075	1.868770	-1004.288696	
