83.483383	-25.776712	-1001.412964	
84.088524	-25.702007	-1001.394531	
84.740837	-25.613585	-1001.328369	
85.226967	-25.567808	-1001.342163	
85.781548	-25.531872	-1001.376709	
86.177582	-25.449583	-1001.758972	
86.736061	-25.368542	-1001.950073	
87.289894	-25.266731	-1002.124023	
87.851700	-25.181547	-1002.199524	
88.338768	-25.118315	-1002.383606	
88.849640	-25.082823	-1002.521240	
89.228424	-25.033329	-1002.812805	
89.733391	-24.933981	-1002.939453	
90.275261	-24.861576	-1003.003113	
90.858055	-24.780910	-1003.075928	
91.396065	-24.714788	-1003.241943	
91.840324	-24.652031	-1003.512817	
92.418549	-24.562897	-1003.559814	
92.841858	-24.503538	-1003.819336	
93.302315	-24.470081	-1004.077881	
93.724968	-24.378145	-1004.350525	
94.274834	-24.316158	-1004.462097	
94.944931	-24.200176	-1004.392395	
95.410751	-24.145786	-1004.604126	
95.913223	-24.093510	-1004.744812	
96.648949	-23.985620	-1004.514404	
97.012451	-23.924686	-1004.846252	
97.484718	-23.826477	-1005.143616	
97.480202	-23.788177	-1006.142090	
98.164879	-23.714354	-1006.221924	
98.745827	-23.638533	-1006.372681	
99.202194	-23.613308	-1006.701965	
99.688309	-23.515673	-1006.923462	
100.054482	-23.476589	-1007.280701	
100.645287	-23.388285	-1007.424622	
100.973717	-23.327997	-1007.924438	
101.529526	-23.261414	-1008.151672	
102.022942	-23.181953	-1008.402588	
102.599869	-23.090704	-1008.552795	
103.028023	-23.040638	-1008.937439	
103.378922	-22.968018	-1009.372803	
103.905891	-22.900244	-1009.607300	
104.296135	-22.850441	-1010.026733	
104.719894	-22.760326	-1010.406433	
105.244179	-22.695446	-1010.689697	
105.684662	-22.634497	-1011.083557	
106.020943	-22.557949	-1011.633606	
106.535973	-22.476748	-1011.936462	
107.026329	-22.419300	-1012.231140	
107.492630	-22.326481	-1012.581482	
107.821037	-22.253820	-1013.126465	
108.271240	-22.218536	-1013.509521	
108.715004	-22.135435	-1013.874023	
109.189400	-22.070238	-1014.177002	
109.898529	-21.952816	-1014.192810	
110.243073	-21.893656	-1014.834412	
110.280090	-21.875622	-1015.948486	
111.026970	-21.753502	-1016.051636	
111.358322	-21.695177	-1016.654358	
111.821205	-21.614672	-1017.109680	
112.091133	-21.566389	-1017.804443	
112.482399	-21.499434	-1018.363770	
113.117195	-21.396557	-1018.587830	
113.405899	-21.334095	-1019.248352	
113.886955	-21.242878	-1019.740051	
113.958717	-21.216724	-1020.790405	
114.642250	-21.117399	-1021.058777	
114.807693	-21.068020	-1022.011108	
115.434967	-20.975237	-1022.282104	
115.723747	-20.925516	-1023.071594	
115.869514	-20.872828	-1023.996826	
116.295624	-20.803129	-1024.674561	
116.729004	-20.709929	-1025.283447	
116.943054	-20.657587	-1026.147949	
117.449570	-20.579222	-1026.720581	
117.793510	-20.518698	-1027.569946	
118.044418	-20.454874	-1028.540649	
118.436508	-20.375601	-1029.256348	
118.623276	-20.299932	-1030.207275	
119.360657	-20.200502	-1030.279663	
119.998123	-20.093292	-1030.567139	
120.030891	-20.061710	-1031.853638	
120.438034	-19.983654	-1032.733643	
120.798141	-19.896271	-1033.718140	
120.764259	-19.834522	-1035.250732	
121.572548	-19.751007	-1035.862183	
120.677292	-19.712748	-1039.645142	
121.258987	-19.666265	-1040.587158	
121.587715	-19.595900	-1041.678711	
121.013458	-19.440462	-1044.498413	
122.676872	-19.250658	-1044.072998	
120.892258	-19.316723	-1048.657104	
123.576401	-18.971323	-1047.021606	
122.650978	-18.909149	-1051.881714	
52.641914	-28.892448	-1009.094727	
53.493999	-28.796188	-1008.445435	
54.173695	-28.720140	-1007.982727	
54.953201	-28.640535	-1007.475342	
55.721241	-28.571947	-1007.138489	
56.548580	-28.415005	-1006.696472	
57.446636	-28.327692	-1006.153442	
57.894215	-28.304579	-1006.096680	
58.424328	-28.249651	-1005.897522	
59.015591	-28.184563	-1005.722900	
59.879948	-28.062193	-1005.261780	
60.598602	-27.994068	-1004.930237	
61.360352	-27.924576	-1004.547546	
61.980022	-27.837458	-1004.357849	
62.703831	-27.763554	-1004.052551	
63.355862	-27.685001	-1003.836426	
63.975941	-27.629166	-1003.667053	
64.569893	-27.535669	-1003.509033	
65.274673	-27.470312	-1003.232300	
65.839439	-27.401852	-1003.117676	
66.442505	-27.317766	-1002.948120	
67.152214	-27.241440	-1002.665833	
67.709518	-27.170372	-1002.578735	
68.398445	-27.098919	-1002.358826	
68.912445	-27.036394	-1002.379333	
69.690231	-26.935558	-1002.062500	
70.337105	-26.850960	-1001.882935	
70.970825	-26.789265	-1001.735413	
71.617966	-26.695635	-1001.583496	
72.204781	-26.659082	-1001.451843	
72.764809	-26.595486	-1001.270935	
73.343460	-26.523619	-1001.139648	
74.015533	-26.434820	-1000.965393	
74.593460	-26.359701	-1000.922485	
75.291840	-26.248732	-1000.767151	
75.815605	-26.178415	-1000.822449	
76.449974	-26.129183	-1000.718567	
77.078194	-26.057535	-1000.604370	
77.549812	-25.993063	-1000.700378	
77.949554	-25.964935	-1000.904724	
78.613785	-25.852528	-1000.762817	
79.129578	-25.766689	-1000.838440	
79.723419	-25.710411	-1000.762024	
80.347916	-25.612545	-1000.677307	
80.841248	-25.562525	-1000.816589	
81.569290	-25.486898	-1000.647888	
82.038528	-25.404448	-1000.792114	
82.607468	-25.340130	-1000.805359	
83.078262	-25.252796	-1000.960876	
83.588692	-25.185400	-1001.066345	
84.192390	-25.107878	-1001.031250	
84.455383	-25.079533	-1001.394043	
85.086563	-25.052568	-1001.223999	
85.575508	-25.006704	-1001.519104	
86.115852	-24.912388	-1001.763611	
86.794052	-24.783026	-1001.732605	
87.279968	-24.694813	-1001.929749	
87.799309	-24.629511	-1002.058594	
88.287598	-24.562553	-1002.216675	
88.784096	-24.504038	-1002.353149	
89.234787	-24.440447	-1002.535522	
89.768631	-24.363094	-1002.648804	
90.273743	-24.281864	-1002.749695	
90.728279	-24.216749	-1003.013123	
91.253250	-24.154596	-1003.199707	
91.930328	-24.069319	-1003.160645	
92.389572	-23.988800	-1003.359436	
92.926498	-23.925844	-1003.485474	
93.487366	-23.842045	-1003.581970	
93.767395	-23.791439	-1004.039917	
94.266678	-23.721308	-1004.212341	
94.862694	-23.654690	-1004.267273	
95.435616	-23.577475	-1004.306091	
95.857430	-23.521206	-1004.475281	
96.509560	-23.449778	-1004.374451	
97.032822	-23.389011	-1004.509827	
97.732307	-23.283842	-1004.467651	
98.044655	-23.226183	-1004.996765	
98.197594	-23.144346	-1005.787842	
98.524872	-23.079472	-1006.373962	
99.209976	-23.007690	-1006.423218	
99.587845	-22.974764	-1006.801025	
100.099472	-22.876396	-1007.005554	
100.477043	-22.840593	-1007.413879	
100.991943	-22.765194	-1007.662170	
101.640289	-22.656044	-1007.749146	
102.000893	-22.607897	-1008.201477	
102.489517	-22.533964	-1008.447205	
102.956718	-22.464165	-1008.757813	
103.394623	-22.395090	-1009.099731	
103.854515	-22.302097	-1009.415955	
104.327972	-22.259655	-1009.742798	
104.684998	-22.191685	-1010.206238	
105.181755	-22.118074	-1010.480286	
105.588280	-22.055006	-1010.960022	
106.185135	-21.968639	-1011.168701	
106.661209	-21.881084	-1011.486694	
106.977776	-21.835308	-1012.036011	
107.501488	-21.760239	-1012.317993	
107.909737	-21.679459	-1012.731995	
108.186188	-21.624006	-1013.371399	
108.699707	-21.548477	-1013.631592	
109.094925	-21.493113	-1014.049988	
109.669022	-21.396797	-1014.258484	
110.371704	-21.315838	-1014.370728	
110.395134	-21.257322	-1015.505005	
110.968102	-21.182947	-1015.850281	
111.136894	-21.133219	-1016.692505	
111.694771	-21.049997	-1016.986816	
112.191208	-20.980721	-1017.373535	
112.474724	-20.902399	-1018.066467	
112.923965	-20.835640	-1018.567078	
113.422874	-20.747522	-1018.981384	
113.528969	-20.713041	-1019.958923	
114.015213	-20.648502	-1020.452881	
114.422813	-20.575691	-1021.091064	
114.907768	-20.488966	-1021.581970	
115.241394	-20.403976	-1022.254578	
115.712021	-20.330185	-1022.763062	
115.848679	-20.270035	-1023.760986	
116.165230	-20.222149	-1024.515015	
116.707718	-20.142693	-1024.973999	
117.001404	-20.072613	-1025.787109	
117.242119	-20.020357	-1026.725708	
117.660194	-19.942741	-1027.429565	
118.046387	-19.860821	-1028.188354	
118.458794	-19.774485	-1028.848145	
118.794304	-19.678333	-1029.563965	
119.338226	-19.579210	-1029.885132	
119.967682	-19.501797	-1030.278320	
119.917267	-19.470388	-1031.687866	
120.280548	-19.427763	-1032.633789	
121.230095	-19.287600	-1032.703247	
120.909714	-19.219103	-1034.642578	
121.548599	-19.133204	-1035.436279	
120.054390	-19.222767	-1040.027100	
121.030167	-19.044491	-1040.435303	
121.484810	-18.988619	-1041.229980	
123.010231	-18.779976	-1040.424927	
120.498604	-18.820774	-1046.508179	
121.681656	-18.670565	-1046.735107	
122.104317	-18.573362	-1048.129883	
52.615643	-28.289438	-1008.909546	
53.446323	-28.215742	-1008.280945	
54.160362	-28.154190	-1007.817627	
54.841976	-28.085566	-1007.495117	
55.687447	-27.937061	-1007.054749	
56.443001	-27.856720	-1006.682068	
57.321507	-27.770447	-1006.122375	
57.910934	-27.725498	-1005.858948	
58.398010	-27.687824	-1005.706116	
59.128555	-27.608509	-1005.341736	
59.880684	-27.518457	-1005.030701	
60.633533	-27.434006	-1004.667358	
61.248333	-27.336828	-1004.450684	
61.904564	-27.281187	-1004.218445	
62.740391	-27.194954	-1003.777344	
63.314499	-27.142389	-1003.667053	
63.964542	-27.044325	-1003.429199	
64.677971	-26.968494	-1003.151733	
65.294823	-26.918818	-1002.986389	
65.981827	-26.799473	-1002.708557	
66.484428	-26.749695	-1002.673035	
67.131752	-26.684265	-1002.467041	
67.762451	-26.612989	-1002.294922	
68.426292	-26.521713	-1002.102539	
69.025246	-26.470306	-1002.003357	
69.658020	-26.385622	-1001.845215	
70.407425	-26.294727	-1001.573242	
70.910103	-26.233681	-1001.587097	
71.452499	-26.179689	-1001.573730	
72.224251	-26.075682	-1001.202087	
72.823914	-26.003359	-1000.981079	
73.281097	-25.951008	-1000.972046	
73.970421	-25.858694	-1000.786194	
74.587883	-25.798462	-1000.711121	
75.236305	-25.715662	-1000.637329	
75.795296	-25.639606	-1000.617493	
76.453903	-25.565945	-1000.487488	
77.003532	-25.495787	-1000.475525	
77.478645	-25.426044	-1000.555359	
78.033737	-25.354242	-1000.564453	
78.654938	-25.278021	-1000.495972	
79.237793	-25.210213	-1000.439270	
79.744743	-25.154207	-1000.480713	
80.234665	-25.091312	-1000.588501	
80.794403	-25.021231	-1000.680176	
81.543159	-24.924860	-1000.506836	
82.075027	-24.857843	-1000.573120	
82.630028	-24.775711	-1000.583496	
83.076431	-24.701372	-1000.753357	
83.575020	-24.636038	-1000.845093	
84.109711	-24.569853	-1000.909973	
84.628746	-24.524153	-1000.931458	
85.061821	-24.434290	-1001.081604	
85.262695	-24.382435	-1001.793518	
86.352478	-24.267841	-1001.276062	
86.827446	-24.187986	-1001.497314	
87.298531	-24.125208	-1001.695801	
87.736084	-24.061501	-1001.912781	
88.310501	-24.001419	-1001.958008	
88.719765	-23.948105	-1002.177307	
89.324738	-23.875656	-1002.193848	
89.744804	-23.805693	-1002.452332	
90.312256	-23.723377	-1002.491760	
90.815552	-23.659016	-1002.663940	
91.295860	-23.580107	-1002.905945	
91.859718	-23.509398	-1002.991516	
92.379654	-23.429432	-1003.127502	
92.764908	-23.369165	-1003.451050	
93.393791	-23.294439	-1003.460999	
93.807709	-23.241241	-1003.758850	
94.185333	-23.171162	-1004.084412	
94.780823	-23.108360	-1004.140076	
95.293808	-23.045536	-1004.242798	
95.948425	-22.975065	-1004.135315	
96.553062	-22.878714	-1004.083008	
97.295815	-22.753019	-1003.873718	
97.748505	-22.715263	-1004.138245	
98.204781	-22.670372	-1004.431274	
98.464394	-22.602060	-1005.045715	
98.494186	-22.516174	-1005.970764	
98.938431	-22.467794	-1006.454041	
99.656616	-22.398546	-1006.483704	
100.108719	-22.320469	-1006.738403	
100.696419	-22.268433	-1006.846680	
101.071526	-22.192307	-1007.318604	
101.565231	-22.106525	-1007.593323	
102.125420	-22.038197	-1007.797363	
102.451576	-21.965666	-1008.242310	
102.967964	-21.900139	-1008.500488	
103.413620	-21.822716	-1008.828430	
103.893867	-21.746708	-1009.124146	
104.317879	-21.696056	-1009.497864	
104.614258	-21.649973	-1010.063293	
105.200790	-21.567705	-1010.237549	
105.688194	-21.484049	-1010.570251	
106.088051	-21.419540	-1011.054810	
106.500328	-21.364805	-1011.480530	
107.032822	-21.261080	-1011.727478	
107.430710	-21.200670	-1012.161926	
107.798676	-21.136625	-1012.646484	
108.278725	-21.055258	-1012.992737	
108.673241	-20.993696	-1013.420288	
109.144493	-20.932999	-1013.743835	
109.762436	-20.833677	-1013.867554	
110.306236	-20.755444	-1014.218567	
110.260620	-20.726103	-1015.436462	
110.736092	-20.640554	-1015.899780	
111.289970	-20.569899	-1016.215210	
111.625412	-20.522022	-1016.816162	
112.035545	-20.433771	-1017.323059	
112.645447	-20.340029	-1017.574219	
112.940971	-20.290575	-1018.270935	
113.194145	-20.220280	-1019.007324	
113.627846	-20.129459	-1019.546021	
114.087166	-20.076628	-1020.083435	
114.604904	-19.981342	-1020.560913	
114.967979	-19.900396	-1021.213928	
115.300491	-19.832693	-1021.896301	
115.626335	-19.775211	-1022.599487	
115.949646	-19.707588	-1023.320862	
116.360191	-19.653021	-1023.993835	
116.819214	-19.561920	-1024.514160	
117.324356	-19.475561	-1024.977905	
117.276085	-19.439301	-1026.338135	
117.765274	-19.388506	-1026.960083	
118.132195	-19.278440	-1027.691040	
118.739044	-19.175846	-1027.996338	
119.252296	-19.076559	-1028.375610	
119.594826	-19.000698	-1029.114746	
119.814369	-18.963978	-1030.113647	
120.158302	-18.913393	-1030.988403	
120.514839	-18.797415	-1031.895142	
120.546974	-18.738316	-1033.413574	
120.958115	-18.662193	-1034.311768	
121.306618	-18.612663	-1035.480957	
122.387024	-18.498312	-1035.554077	
120.070641	-18.564922	-1041.400146	
121.475479	-18.350319	-1040.816772	
122.633545	-18.171238	-1040.426147	
122.625595	-18.149244	-1042.380615	
122.104462	-18.053835	-1045.199341	
121.451881	-18.043148	-1048.234985	
51.029701	-27.947670	-1009.751404	
51.768463	-27.881411	-1009.302307	
52.661991	-27.805986	-1008.689392	
53.289040	-27.746536	-1008.390686	
54.168472	-27.615921	-1007.728516	
54.977333	-27.520630	-1007.245178	
55.720375	-27.440811	-1006.911072	
56.488689	-27.347126	-1006.472900	
57.226303	-27.257917	-1006.042175	
57.832890	-27.216951	-1005.734131	
58.453255	-27.159483	-1005.421082	
59.137085	-27.075516	-1005.128174	
60.001255	-26.985832	-1004.699463	
60.587830	-26.921011	-1004.509583	
61.330315	-26.826435	-1004.155823	
61.931046	-26.753193	-1003.979126	
62.609413	-26.712498	-1003.754517	
63.277004	-26.647987	-1003.532837	
64.017273	-26.538031	-1003.179077	
64.658020	-26.470789	-1002.975830	
65.279694	-26.404749	-1002.793335	
65.882713	-26.331158	-1002.617798	
66.518311	-26.234613	-1002.421875	
67.127930	-26.182306	-1002.279419	
67.726616	-26.114714	-1002.136841	
68.464714	-26.027855	-1001.835449	
69.042618	-25.974615	-1001.771729	
69.699516	-25.875370	-1001.597290	
70.404961	-25.780291	-1001.362915	
71.071899	-25.707430	-1001.183289	
71.637077	-25.633057	-1001.121887	
72.108299	-25.568932	-1001.131104	
72.762283	-25.494682	-1000.832825	
73.392258	-25.424822	-1000.617737	
73.989037	-25.370644	-1000.547913	
74.658592	-25.256117	-1000.413757	
75.317673	-25.178576	-1000.296692	
75.796005	-25.139763	-1000.437195	
76.440025	-25.058561	-1000.292847	
76.920609	-24.998014	-1000.369629	
77.494781	-24.925341	-1000.346191	
78.043137	-24.853745	-1000.350586	
78.590042	-24.797228	-1000.353210	
79.173462	-24.716909	-1000.305542	
79.739212	-24.646471	-1000.288696	
80.266953	-24.591728	-1000.367493	
80.838593	-24.504242	-1000.440369	
81.300034	-24.448360	-1000.691162	
82.112885	-24.353416	-1000.413879	
82.510284	-24.303022	-1000.624756	
83.042374	-24.215420	-1000.662354	
83.525909	-24.156281	-1000.756348	
84.072960	-24.094254	-1000.782288	
84.540047	-24.036587	-1000.941895	
85.030762	-23.930786	-1001.094299	
85.443611	-23.822678	-1001.397217	
86.263641	-23.721907	-1001.220215	
86.851982	-23.662077	-1001.272949	
87.175354	-23.626484	-1001.638489	
87.782013	-23.552509	-1001.643738	
88.307228	-23.501120	-1001.752563	
88.720192	-23.444225	-1001.983887	
89.286514	-23.377819	-1002.033508	
89.815712	-23.293823	-1002.147461	
90.257149	-23.249493	-1002.362122	
90.792107	-23.164009	-1002.488342	
91.261101	-23.094755	-1002.724121	
91.831062	-23.029449	-1002.833069	
92.225418	-22.949158	-1003.140381	
92.825607	-22.853506	-1003.164063	
93.281433	-22.798758	-1003.402588	
93.699898	-22.741488	-1003.691101	
94.274033	-22.667791	-1003.743896	
94.760208	-22.617313	-1003.955688	
95.304924	-22.534063	-1004.029480	
95.983421	-22.463835	-1003.898499	
96.468994	-22.384111	-1004.024353	
97.314919	-22.298918	-1003.712341	
97.664330	-22.263365	-1004.047791	
97.990715	-22.210241	-1004.434998	
98.559303	-22.121656	-1004.619507	
99.043320	-22.012173	-1004.944763	
99.269279	-21.911848	-1005.588013	
99.350838	-21.908257	-1006.617371	
100.030830	-21.826387	-1006.611023	
100.485489	-21.772825	-1006.885254	
101.049667	-21.691853	-1007.150818	
101.498619	-21.613850	-1007.467834	
102.033470	-21.526138	-1007.667786	
102.515129	-21.457960	-1007.957031	
102.927071	-21.388647	-1008.330627	
103.252785	-21.344633	-1008.833008	
103.900215	-21.229145	-1008.890015	
104.387787	-21.176615	-1009.172607	
104.833115	-21.114761	-1009.525269	
105.209053	-21.057507	-1009.991882	
105.636436	-20.964365	-1010.387634	
106.089424	-20.906229	-1010.825623	
106.566750	-20.832232	-1011.178040	
107.020149	-20.755207	-1011.508911	
107.334427	-20.699364	-1012.086060	
107.805824	-20.640490	-1012.404724	
108.247963	-20.570518	-1012.792969	
108.586723	-20.508183	-1013.334290	
109.146683	-20.427217	-1013.515259	
109.862289	-20.316345	-1013.513550	
110.387215	-20.258930	-1013.875061	
110.321861	-20.218597	-1015.079468	
110.940437	-20.117451	-1015.369141	
111.348030	-20.044584	-1015.891541	
111.748596	-19.979422	-1016.405884	
111.882057	-19.929184	-1017.305969	
112.482483	-19.825012	-1017.543274	
112.870560	-19.775507	-1018.126648	
113.556610	-19.688200	-1018.269714	
113.810303	-19.602684	-1019.007385	
114.211456	-19.550034	-1019.667053	
114.524620	-19.483910	-1020.416931	
114.905449	-19.401108	-1021.044006	
115.397293	-19.333923	-1021.497620	
115.568550	-19.289549	-1022.420288	
116.014824	-19.194193	-1022.969116	
116.422958	-19.107067	-1023.607788	
116.845802	-19.053612	-1024.205566	
117.164810	-18.963575	-1024.971802	
117.402245	-18.916851	-1025.875366	
117.844872	-18.850149	-1026.549805	
118.377365	-18.751778	-1027.003906	
118.767128	-18.656509	-1027.495850	
119.478462	-18.561289	-1027.640137	
119.579811	-18.525660	-1028.817871	
120.011780	-18.447718	-1029.497681	
120.291870	-18.373158	-1030.537964	
120.538872	-18.294163	-1031.609985	
120.880783	-18.200264	-1032.567383	
120.847260	-18.159409	-1034.179932	
120.875916	-18.112396	-1035.687134	
121.690254	-18.017427	-1036.162354	
121.512573	-17.856453	-1040.293579	
122.697067	-17.682919	-1039.999878	
122.855209	-17.682285	-1041.471191	
122.709869	-17.561636	-1043.753174	
122.740486	-17.486496	-1045.725586	
50.314037	-27.517509	-1010.013855	
50.981907	-27.449844	-1009.616516	
51.629276	-27.405842	-1009.260925	
52.478573	-27.327261	-1008.765259	
53.295731	-27.217674	-1008.274170	
54.051670	-27.151917	-1007.806396	
54.843243	-27.032934	-1007.324768	
55.498737	-26.953987	-1007.018616	
56.407001	-26.843857	-1006.384216	
57.274963	-26.780029	-1005.807129	
57.742355	-26.719019	-1005.631592	
58.535522	-26.660423	-1005.101501	
59.199123	-26.579044	-1004.846619	
59.901390	-26.501484	-1004.614258	
60.636147	-26.421726	-1004.268066	
61.287834	-26.346693	-1004.012207	
61.992199	-26.269249	-1003.732178	
62.754353	-26.185314	-1003.370850	
63.528019	-26.086048	-1003.019348	
64.041794	-26.031584	-1002.953430	
64.629044	-25.977146	-1002.824646	
65.311424	-25.905699	-1002.573364	
65.909431	-25.834141	-1002.401367	
66.586853	-25.745949	-1002.148560	
67.126778	-25.678190	-1002.101318	
67.696220	-25.574938	-1001.964844	
68.333023	-25.537710	-1001.769958	
69.016998	-25.453074	-1001.576904	
69.740654	-25.387877	-1001.347900	
70.340981	-25.316067	-1001.263855	
70.878082	-25.234484	-1001.226868	
71.609039	-25.141344	-1000.960510	
72.056831	-25.072119	-1000.989197	
72.777885	-25.013430	-1000.603638	
73.359497	-24.947956	-1000.470337	
73.973099	-24.866257	-1000.388428	
74.635857	-24.799059	-1000.266663	
75.215645	-24.736282	-1000.247070	
75.817123	-24.647303	-1000.182129	
76.331909	-24.593573	-1000.239502	
76.876770	-24.519485	-1000.238342	
77.556801	-24.430460	-1000.081421	
78.041664	-24.365597	-1000.142639	
78.528175	-24.305367	-1000.228943	
79.184105	-24.220423	-1000.094604	
79.757164	-24.154596	-1000.078491	
80.295326	-24.079748	-1000.138733	
80.758461	-24.018322	-1000.400513	
81.337578	-23.937761	-1000.485107	
81.784073	-23.855877	-1000.663330	
82.456314	-23.814045	-1000.568848	
82.955956	-23.751234	-1000.674866	
83.459785	-23.674114	-1000.748657	
83.937302	-23.599363	-1000.864929	
84.511192	-23.522528	-1000.926819	
85.028343	-23.419504	-1001.027466	
85.612366	-23.319372	-1001.049622	
86.294197	-23.245449	-1000.997070	
86.763229	-23.204592	-1001.199463	
87.226654	-23.136288	-1001.374695	
87.878998	-23.053009	-1001.319946	
88.264320	-23.001724	-1001.598083	
88.706665	-22.953266	-1001.805298	
89.324081	-22.867311	-1001.782532	
89.759979	-22.812456	-1002.011108	
90.278633	-22.761168	-1002.132202	
90.737244	-22.681671	-1002.366760	
91.337990	-22.601444	-1002.424072	
91.925194	-22.515369	-1002.502136	
92.359062	-22.464407	-1002.761047	
92.842857	-22.369900	-1002.942871	
93.393692	-22.302938	-1003.073608	
93.758751	-22.242796	-1003.399536	
94.110336	-22.193165	-1003.752625	
94.795113	-22.107388	-1003.705750	
95.276413	-22.032215	-1003.852478	
95.891335	-21.964985	-1003.860779	
96.419876	-21.898300	-1003.955933	
96.977531	-21.836189	-1004.000122	
97.611183	-21.791193	-1003.958252	
97.988052	-21.704462	-1004.245117	
98.738602	-21.603535	-1004.114990	
99.095886	-21.546539	-1004.552612	
99.436188	-21.449808	-1005.106140	
99.459000	-21.410578	-1006.080139	
99.982582	-21.351164	-1006.400452	
100.532242	-21.285456	-1006.618530	
101.117920	-21.196545	-1006.853760	
101.633804	-21.124233	-1007.087708	
102.121246	-21.044729	-1007.357361	
102.484612	-20.973335	-1007.778076	
102.922066	-20.916447	-1008.128662	
103.392632	-20.832443	-1008.401001	
103.845116	-20.771235	-1008.764771	
104.376465	-20.678141	-1008.987183	
104.803009	-20.625875	-1009.336609	
105.168030	-20.546413	-1009.812012	
105.656448	-20.486290	-1010.155334	
105.917770	-20.431982	-1010.810608	
106.504097	-20.334663	-1011.013794	
106.905640	-20.281775	-1011.450439	
107.370468	-20.207653	-1011.784973	
107.818802	-20.128450	-1012.165283	
108.240860	-20.073591	-1012.572754	
108.697594	-20.026510	-1012.964111	
109.101791	-19.951761	-1013.374207	
109.892090	-19.832596	-1013.228882	
110.440987	-19.753731	-1013.569275	
110.401321	-19.715599	-1014.761108	
110.933243	-19.644304	-1015.153809	
111.304794	-19.543884	-1015.726013	
111.823975	-19.478453	-1016.064941	
111.952599	-19.411089	-1016.999023	
112.510307	-19.330780	-1017.302917	
112.898720	-19.284740	-1017.856750	
113.367615	-19.200018	-1018.315247	
113.778458	-19.125877	-1018.836243	
114.289330	-19.025881	-1019.304077	
114.671524	-18.983326	-1019.974548	
115.056053	-18.903891	-1020.563049	
115.344040	-18.840120	-1021.327698	
115.600929	-18.766907	-1022.124146	
116.093948	-18.691471	-1022.579285	
116.355751	-18.613762	-1023.446716	
116.966393	-18.513954	-1024.998047	
117.360138	-18.417931	-1025.656250	
117.615082	-18.379007	-1026.576538	
118.295975	-18.261553	-1026.740112	
119.024971	-18.161268	-1026.770874	
119.229462	-18.080015	-1027.692139	
119.559441	-18.052498	-1028.568115	
119.590157	-17.988180	-1029.851563	
120.188087	-17.889044	-1030.393188	
120.573982	-17.810009	-1031.269043	
120.494179	-17.787813	-1032.807495	
121.194649	-17.612234	-1033.354370	
120.955605	-17.607096	-1035.263428	
121.647560	-17.501928	-1035.889404	
121.660500	-17.487089	-1037.426514	
120.970062	-17.309612	-1040.601807	
122.376648	-17.200991	-1040.087646	
122.224113	-17.224510	-1042.028564	
122.312920	-17.133442	-1043.895752	
122.646065	-16.982895	-1045.438477	
51.729866	-26.868242	-1008.949951	
52.593182	-26.762798	-1008.478699	
53.363857	-26.647383	-1008.051453	
54.201702	-26.572899	-1007.470947	
54.868187	-26.504864	-1007.107422	
55.607632	-26.420343	-1006.682190	
56.507622	-26.335699	-1006.055542	
57.198963	-26.257599	-1005.658936	
57.941360	-26.186100	-1005.182617	
58.513573	-26.114937	-1004.895813	
59.074718	-26.053246	-1004.774414	
59.978127	-25.972887	-1004.325867	
60.650200	-25.903746	-1004.054016	
61.328716	-25.826939	-1003.764465	
62.062687	-25.739588	-1003.430664	
62.687046	-25.669271	-1003.248535	
63.386417	-25.579275	-1002.986145	
63.983276	-25.509783	-1002.822449	
64.660660	-25.452402	-1002.575928	
65.261482	-25.376081	-1002.404785	
65.920227	-25.277313	-1002.190369	
66.507195	-25.197731	-1002.052734	
67.204468	-25.108360	-1001.763062	
67.780991	-25.055063	-1001.575745	
68.445938	-24.994333	-1001.327148	
69.008018	-24.928513	-1001.324463	
69.727158	-24.866072	-1001.144043	
70.387871	-24.808393	-1000.999756	
70.982819	-24.707493	-1000.906250	
71.563118	-24.646757	-1000.809631	
72.213379	-24.560930	-1000.586304	
72.919853	-24.458265	-1000.207153	
73.463142	-24.421862	-1000.151367	
74.041191	-24.352840	-1000.093018	
74.584389	-24.276773	-1000.093323	
75.262939	-24.208080	-999.968750	
75.816086	-24.151463	-1000.013428	
76.410072	-24.080349	-999.976685	
76.957947	-24.007410	-999.987671	
77.573196	-23.907286	-999.874695	
77.933067	-23.858572	-1000.087585	
78.557823	-23.775290	-999.996704	
79.120354	-23.715239	-999.999573	
79.702423	-23.644241	-999.977600	
80.194565	-23.560461	-1000.125549	
80.767311	-23.462942	-1000.211182	
81.346176	-23.403112	-1000.287170	
81.857338	-23.347998	-1000.402100	
82.397972	-23.256229	-1000.442261	
82.909447	-23.188042	-1000.558411	
83.376106	-23.124895	-1000.684937	
83.910774	-23.046215	-1000.746704	
84.558037	-22.970297	-1000.689270	
85.086479	-22.905430	-1000.771362	
85.565216	-22.844830	-1000.933533	
86.212112	-22.769117	-1000.895020	
86.659637	-22.716011	-1001.120544	
87.251610	-22.645449	-1001.146973	
87.844887	-22.562128	-1001.160217	
88.250130	-22.498730	-1001.404053	
88.693855	-22.437256	-1001.602234	
89.280670	-22.354591	-1001.658203	
89.776817	-22.289703	-1001.794678	
90.213310	-22.236906	-1001.997986	
90.851006	-22.156618	-1001.991211	
91.269325	-22.083200	-1002.300415	
91.833374	-22.008965	-1002.393311	
92.383705	-21.945917	-1002.515808	
92.874664	-21.880539	-1002.686951	
93.318878	-21.802752	-1002.947876	
93.795174	-21.728058	-1003.136230	
94.321289	-21.640766	-1003.280701	
94.668549	-21.598516	-1003.640808	
95.144768	-21.543215	-1003.840942	
95.722275	-21.453539	-1003.918396	
96.246208	-21.394562	-1004.028931	
96.979317	-21.317995	-1003.844543	
97.504784	-21.254097	-1003.921082	
98.053925	-21.169594	-1003.975098	
98.628639	-21.097378	-1004.033264	
99.211731	-21.017416	-1004.115845	
99.450470	-20.964371	-1004.790649	
99.798271	-20.880560	-1005.332581	
99.931831	-20.832628	-1006.147217	
100.377213	-20.782555	-1006.623840	
101.005562	-20.690121	-1006.778870	
101.464745	-20.621262	-1007.105164	
102.081001	-20.532190	-1007.172913	
102.436905	-20.472853	-1007.635620	
102.855385	-20.393908	-1007.997620	
103.320854	-20.325985	-1008.277344	
103.706764	-20.262810	-1008.713013	
104.286629	-20.188894	-1008.885071	
104.760796	-20.116632	-1009.180725	
105.246750	-20.047710	-1009.502991	
105.616104	-19.981318	-1010.002380	
106.139763	-19.884008	-1010.303833	
106.561073	-19.826599	-1010.708862	
107.010628	-19.723423	-1011.064758	
107.508911	-19.673506	-1011.379761	
107.928848	-19.625805	-1011.782349	
108.194023	-19.562780	-1012.442810	
108.488708	-19.500439	-1012.996521	
109.142044	-19.401167	-1013.042297	
109.763657	-19.318563	-1013.163391	
110.397072	-19.234097	-1013.373169	
110.455391	-19.177525	-1014.407593	
110.871872	-19.114471	-1014.991089	
111.315506	-19.031067	-1015.458801	
111.826820	-18.974325	-1015.812988	
112.037857	-18.899876	-1016.600403	
112.363953	-18.822805	-1017.242737	
112.825333	-18.761930	-1017.728821	
113.286407	-18.688347	-1018.148499	
113.693855	-18.629742	-1018.713196	
114.118103	-18.533884	-1019.276917	
114.528519	-18.475145	-1019.899475	
114.886971	-18.394201	-1020.569275	
115.201012	-18.309977	-1021.270142	
115.578018	-18.249138	-1021.899048	
115.966667	-18.179541	-1022.538696	
116.481186	-18.065693	-1022.953308	
116.871574	-18.017323	-1023.670715	
117.190659	-17.956692	-1024.374023	
117.281815	-17.910675	-1025.488403	
117.678619	-17.840776	-1026.189819	
118.659653	-17.708357	-1025.891113	
119.046806	-17.638752	-1026.427856	
119.191154	-17.583492	-1027.462891	
119.639282	-17.505001	-1028.119019	
119.657516	-17.426506	-1029.461548	
119.957085	-17.389505	-1030.450806	
120.417519	-17.296570	-1031.174927	
120.688385	-17.216476	-1032.201294	
121.268311	-17.125509	-1032.928955	
121.342560	-16.968164	-1034.352539	
121.598213	-16.973665	-1035.707642	
121.659996	-16.861166	-1037.145142	
122.477531	-16.797396	-1037.479004	
122.639198	-16.564404	-1039.134277	
122.131660	-16.642523	-1041.736328	
122.914818	-16.519197	-1042.579346	
122.717857	-16.401768	-1044.768188	
51.675552	-26.334070	-1008.871582	
52.513702	-26.231243	-1008.451111	
53.399189	-26.134392	-1007.845459	
54.159134	-26.041529	-1007.319580	
54.750843	-25.976353	-1007.035217	
55.543552	-25.917925	-1006.558167	
56.481117	-25.843462	-1005.894226	
57.259357	-25.759417	-1005.406494	
57.899303	-25.656467	-1005.034363	
58.526688	-25.610220	-1004.678955	
59.047104	-25.570778	-1004.638000	
59.959206	-25.459600	-1004.137085	
60.664429	-25.392838	-1003.840088	
61.356007	-25.325434	-1003.543701	
62.149281	-25.220337	-1003.135620	
62.646633	-25.150864	-1003.099792	
63.267914	-25.087782	-1002.922180	
64.077370	-24.990217	-1002.509888	
64.626663	-24.925865	-1002.406494	
65.187057	-24.831728	-1002.288269	
65.783577	-24.756857	-1002.096313	
66.473106	-24.688442	-1001.784485	
67.160881	-24.652298	-1001.477844	
67.877083	-24.599138	-1001.120605	
68.537727	-24.532213	-1000.893921	
69.129662	-24.447765	-1000.894165	
69.670074	-24.371298	-1000.999084	
70.394440	-24.290709	-1000.783875	
71.009743	-24.203814	-1000.650208	
71.546959	-24.138626	-1000.619629	
72.144684	-24.080870	-1000.489380	
72.824661	-24.014811	-1000.200989	
73.414215	-23.918980	-1000.051819	
74.035477	-23.844204	-999.916748	
74.519173	-23.797777	-999.996643	
75.092293	-23.733454	-1000.016724	
75.788719	-23.641708	-999.892761	
76.352203	-23.570335	-999.909668	
76.940086	-23.502615	-999.863037	
77.362511	-23.426710	-1000.010132	
77.963928	-23.351027	-999.900879	
78.497734	-23.301842	-999.934875	
79.012268	-23.220217	-999.996155	
79.608459	-23.133579	-999.989380	
80.213928	-23.052824	-999.948059	
80.755920	-22.969187	-1000.036682	
81.357651	-22.911161	-1000.096741	
81.925919	-22.838007	-1000.124756	
82.322098	-22.784782	-1000.360168	
82.889877	-22.713232	-1000.387939	
83.330467	-22.651018	-1000.564880	
83.964607	-22.573988	-1000.489563	
84.442993	-22.512493	-1000.640076	
85.059334	-22.426958	-1000.600220	
85.568016	-22.353767	-1000.719543	
86.101234	-22.294058	-1000.860046	
86.683609	-22.210264	-1000.896667	
87.152245	-22.153761	-1001.071594	
87.652382	-22.077942	-1001.190552	
88.229530	-22.025850	-1001.233093	
88.672447	-21.930700	-1001.410034	
89.166985	-21.867207	-1001.579529	
89.809128	-21.779377	-1001.528931	
90.125000	-21.739477	-1001.911255	
90.654892	-21.653275	-1002.028381	
91.200806	-21.578873	-1002.182983	
91.853470	-21.507660	-1002.171936	
92.429085	-21.420065	-1002.227173	
92.815353	-21.379417	-1002.549194	
93.302330	-21.299694	-1002.762817	
93.831688	-21.231096	-1002.902893	
94.286110	-21.162710	-1003.131531	
94.715790	-21.099264	-1003.403015	
95.287704	-21.013443	-1003.464600	
95.792572	-20.949827	-1003.653320	
96.364243	-20.861908	-1003.739258	
96.942184	-20.805340	-1003.756165	
97.452766	-20.731619	-1003.837769	
98.130669	-20.662270	-1003.725830	
98.657455	-20.602028	-1003.817688	
99.130898	-20.527658	-1004.015503	
99.402077	-20.499880	-1004.588196	
99.884727	-20.419596	-1004.941040	
100.184090	-20.298847	-1005.492188	
100.287415	-20.269033	-1006.485596	
101.083115	-20.184244	-1006.460876	
101.513138	-20.103012	-1006.816711	
102.012733	-20.033554	-1007.061401	
102.539688	-19.959280	-1007.273132	
102.954941	-19.881250	-1007.640930	
103.380775	-19.833176	-1007.989685	
103.747627	-19.757999	-1008.439026	
104.254158	-19.694626	-1008.713257	
104.793571	-19.611963	-1008.906250	
105.253235	-19.544004	-1009.276794	
105.603737	-19.475048	-1009.796387	
106.057640	-19.391195	-1010.181274	
106.668083	-19.305040	-1010.351074	
106.989616	-19.240547	-1010.865906	
107.310249	-19.183409	-1011.417053	
107.726280	-19.119995	-1011.839539	
108.234657	-19.038782	-1012.149658	
108.551361	-18.988298	-1012.683533	
109.090729	-18.922947	-1012.900879	
109.675011	-18.825335	-1013.085449	
110.240982	-18.715889	-1013.364197	
110.435143	-18.683487	-1014.222900	
110.865631	-18.607908	-1014.783081	
111.320198	-18.549532	-1015.247437	
111.794540	-18.451290	-1015.632751	
112.105415	-18.392374	-1016.293884	
112.358459	-18.324257	-1017.016174	
112.919563	-18.257145	-1017.368958	
113.226448	-18.188034	-1017.986084	
113.617828	-18.131109	-1018.566101	
114.242332	-17.995377	-1018.868713	
114.479210	-17.952511	-1019.741882	
114.848679	-17.905396	-1020.373596	
115.308243	-17.794746	-1020.908142	
115.657349	-17.745539	-1021.540771	
116.143791	-17.678701	-1022.033020	
116.348633	-17.582153	-1022.933044	
116.789986	-17.519903	-1023.536865	
117.184288	-17.470449	-1024.096313	
117.471886	-17.394495	-1024.942139	
117.588951	-17.325006	-1026.045044	
118.600418	-17.210953	-1025.674683	
118.927231	-17.131433	-1026.299805	
119.252838	-17.057037	-1027.094116	
119.622887	-16.992748	-1027.876343	
120.015404	-16.910055	-1028.708252	
120.116859	-16.818726	-1029.899292	
120.252747	-16.803497	-1031.154297	
120.584137	-16.688990	-1032.098145	
121.324791	-16.589314	-1032.504150	
121.645638	-16.480625	-1033.626831	
121.120117	-16.472710	-1036.127075	
121.881371	-16.341627	-1036.585815	
122.010948	-16.305357	-1037.901978	
123.466454	-16.105917	-1037.455078	
122.340187	-16.113743	-1041.048950	
122.437386	-15.858100	-1046.952026	
49.400337	-26.057526	-1010.252991	
50.285370	-25.981636	-1009.566345	
51.002666	-25.909437	-1009.091064	
51.774185	-25.785788	-1008.656189	
52.643867	-25.687941	-1008.134460	
53.400661	-25.617125	-1007.645203	
54.002987	-25.575340	-1007.322327	
54.751175	-25.501236	-1006.858032	
55.697407	-25.399366	-1006.178284	
56.416336	-25.325174	-1005.763123	
57.231766	-25.242943	-1005.228088	
57.851372	-25.175474	-1004.891541	
58.475189	-25.135969	-1004.561462	
59.096607	-25.080679	-1004.381287	
60.032509	-24.969099	-1003.854309	
60.671078	-24.896908	-1003.649597	
61.340698	-24.819935	-1003.359924	
61.932980	-24.746494	-1003.200073	
62.639366	-24.669428	-1002.924805	
63.282909	-24.583284	-1002.711792	
63.944611	-24.497061	-1002.458008	
64.674377	-24.404251	-1002.062805	
65.323029	-24.341373	-1001.787231	
66.069206	-24.298552	-1001.378113	
66.742599	-24.257420	-1001.077698	
67.424324	-24.185019	-1000.792847	
68.002396	-24.119547	-1000.660645	
68.465874	-24.051758	-1000.751282	
69.250481	-23.944178	-1000.526672	
69.723206	-23.873735	-1000.711426	
70.462570	-23.778410	-1000.498657	
70.956749	-23.719992	-1000.520508	
71.468262	-23.669359	-1000.519287	
71.987839	-23.583305	-1000.504944	
72.706100	-23.516296	-1000.224915	
73.330551	-23.430229	-1000.057739	
73.919952	-23.379080	-999.945129	
74.554146	-23.298862	-999.849792	
75.043022	-23.249664	-999.976135	
75.655228	-23.149036	-999.936829	
76.428490	-23.045052	-999.686768	
76.847839	-23.005535	-999.839539	
77.346405	-22.946293	-999.878784	
77.945908	-22.881254	-999.810852	
78.461082	-22.798210	-999.875305	
79.054581	-22.713932	-999.843018	
79.738327	-22.620552	-999.694641	
80.192467	-22.577526	-999.822937	
80.789749	-22.485260	-999.803955	
81.253220	-22.440102	-1000.026123	
81.813881	-22.344912	-1000.075928	
82.390823	-22.302496	-1000.094910	
82.953369	-22.216928	-1000.111328	
83.437164	-22.169538	-1000.241394	
83.933006	-22.095795	-1000.336304	
84.470673	-22.014971	-1000.406311	
84.963760	-21.941584	-1000.526001	
85.531219	-21.860849	-1000.563843	
86.114197	-21.811340	-1000.642517	
86.708702	-21.726496	-1000.658081	
87.363396	-21.634335	-1000.611938	
87.748428	-21.587027	-1000.888245	
88.190987	-21.512726	-1001.071350	
88.730804	-21.447121	-1001.146118	
89.252846	-21.381697	-1001.279175	
89.702156	-21.300980	-1001.470520	
90.206749	-21.243628	-1001.600281	
90.690674	-21.169508	-1001.793823	
91.329521	-21.087538	-1001.822937	
91.920479	-21.015760	-1001.891235	
92.431770	-20.934925	-1002.025330	
92.811821	-20.900713	-1002.376404	
93.326126	-20.800362	-1002.519104	
93.701904	-20.755529	-1002.865906	
94.122505	-20.690630	-1003.145569	
94.763771	-20.612925	-1003.133179	
95.108604	-20.539913	-1003.484436	
95.679306	-20.461327	-1003.608765	
96.253593	-20.401741	-1003.737244	
96.919067	-20.330351	-1003.672363	
97.395332	-20.241455	-1003.789673	
97.979813	-20.187788	-1003.781799	
98.551712	-20.113214	-1003.800232	
98.991165	-20.053133	-1004.024109	
99.492142	-19.983799	-1004.216797	
100.119919	-19.924812	-1004.388672	
100.422768	-19.815592	-1004.935364	
100.372665	-19.753866	-1006.049438	
101.051575	-19.677351	-1006.271606	
101.669739	-19.611797	-1006.397522	
101.987770	-19.541389	-1006.872253	
102.455429	-19.465679	-1007.168762	
102.921509	-19.405458	-1007.472839	
103.286194	-19.348886	-1007.905151	
103.807274	-19.262823	-1008.151917	
104.362419	-19.192179	-1008.346985	
104.583412	-19.136204	-1008.990234	
105.168930	-19.050835	-1009.192261	
105.616463	-18.980789	-1009.556091	
106.117401	-18.903746	-1009.888977	
106.461609	-18.830788	-1010.399841	
106.992805	-18.744461	-1010.644043	
107.368156	-18.684557	-1011.132080	
107.755646	-18.643023	-1011.554504	
108.314430	-18.559341	-1011.812378	
108.592522	-18.509550	-1012.414734	
109.081200	-18.409426	-1012.704224	
109.682762	-18.345575	-1012.847534	
110.154533	-18.258646	-1013.288574	
110.376572	-18.204935	-1014.081909	
110.821220	-18.133881	-1014.631958	
111.309464	-18.036501	-1015.029846	
111.717186	-17.972147	-1015.515869	
112.086052	-17.905554	-1016.088684	
112.426315	-17.837666	-1016.694702	
112.930260	-17.748884	-1017.104858	
113.308960	-17.681053	-1017.639648	
113.635262	-17.624571	-1018.313843	
114.070381	-17.525574	-1018.885437	
114.353119	-17.488075	-1019.700134	
115.007797	-17.365856	-1019.921631	
115.258331	-17.313040	-1020.718689	
115.506042	-17.252947	-1021.511169	
116.093201	-17.158535	-1021.844299	
116.469391	-17.090261	-1022.545410	
116.932755	-17.005552	-1023.057678	
117.082489	-16.954657	-1024.003540	
117.456940	-16.895163	-1024.718262	
117.783951	-16.812969	-1025.478882	
118.718193	-16.685896	-1025.209961	
119.034309	-16.612888	-1025.854614	
119.288979	-16.573471	-1026.781860	
119.644150	-16.463282	-1027.589600	
120.094040	-16.410391	-1028.272827	
120.392441	-16.327885	-1029.256714	
120.402061	-16.254206	-1030.622803	
120.684311	-16.190817	-1031.706421	
121.181107	-16.085203	-1032.435181	
121.424957	-16.027245	-1033.630371	
121.818924	-15.911907	-1034.788696	
121.748848	-15.863069	-1036.543091	
121.823265	-15.772521	-1037.932129	
122.408546	-15.705131	-1038.782715	
122.110840	-15.683612	-1041.046753	
122.232033	-15.504375	-1042.815063	
122.472862	-15.442959	-1044.494507	
122.044556	-15.425764	-1047.314087	
48.454681	-25.605053	-1010.844299	
49.334801	-25.523685	-1010.250122	
50.261932	-25.411882	-1009.541931	
51.020096	-25.315201	-1009.023132	
51.724030	-25.227514	-1008.614197	
52.445145	-25.173702	-1008.177002	
53.252640	-25.089949	-1007.581421	
54.096401	-25.016951	-1006.968140	
54.921768	-24.941774	-1006.425110	
55.581608	-24.873337	-1006.109680	
56.324200	-24.800232	-1005.673584	
57.217155	-24.711859	-1005.045654	
57.713917	-24.654974	-1004.857483	
58.433544	-24.585346	-1004.384949	
59.116707	-24.531504	-1004.156677	
59.922798	-24.437737	-1003.794128	
60.609730	-24.358797	-1003.522400	
61.380173	-24.275463	-1003.117859	
61.989101	-24.196552	-1002.920105	
62.606598	-24.148664	-1002.741638	
63.340191	-24.039314	-1002.353149	
64.082001	-23.988260	-1001.921082	
64.823944	-23.922319	-1001.488831	
65.576683	-23.844408	-1001.068420	
66.169853	-23.798820	-1000.914490	
66.735054	-23.734987	-1000.844849	
67.284805	-23.647102	-1000.774353	
67.816093	-23.566620	-1000.743835	
68.564209	-23.484024	-1000.497375	
69.107079	-23.402718	-1000.559143	
69.807350	-23.304747	-1000.414001	
70.462181	-23.242081	-1000.294983	
70.914093	-23.194092	-1000.382507	
71.465744	-23.121557	-1000.326050	
72.056541	-23.025555	-1000.226563	
72.649101	-22.978460	-1000.125305	
73.162926	-22.903816	-1000.133911	
73.777733	-22.842999	-1000.013367	
74.418762	-22.741968	-999.898193	
75.088852	-22.673864	-999.772888	
75.701721	-22.578978	-999.716309	
76.207092	-22.535183	-999.784607	
76.795265	-22.448744	-999.720947	
77.307945	-22.396397	-999.762634	
77.803406	-22.344397	-999.842285	
78.478844	-22.247202	-999.683044	
79.144798	-22.152830	-999.559692	
79.651627	-22.108557	-999.621826	
80.204521	-22.027893	-999.606445	
80.723427	-21.969191	-999.652039	
81.261917	-21.917398	-999.803772	
81.953598	-21.810730	-999.674500	
82.431671	-21.750881	-999.812561	
82.947655	-21.681484	-999.894958	
83.454231	-21.610670	-999.993286	
83.954872	-21.546940	-1000.101563	
84.334625	-21.502472	-1000.375916	
84.934425	-21.399162	-1000.329041	
85.621628	-21.335304	-1000.235901	
86.082329	-21.286285	-1000.473083	
86.705215	-21.178663	-1000.457153	
87.256706	-21.108181	-1000.539612	
87.707062	-21.044218	-1000.713318	
88.286278	-20.978687	-1000.761169	
88.712234	-20.922239	-1000.967896	
89.230827	-20.848017	-1001.102539	
89.712502	-20.756437	-1001.241333	
90.204773	-20.711603	-1001.386597	
90.624413	-20.649874	-1001.664856	
91.305946	-20.548769	-1001.641846	
91.786240	-20.493280	-1001.838562	
92.418579	-20.414148	-1001.851318	
92.807365	-20.336662	-1002.150269	
93.247437	-20.284212	-1002.419373	
93.732071	-20.221113	-1002.612122	
94.308937	-20.126348	-1002.672119	
94.746109	-20.068951	-1002.943359	
95.185814	-20.010977	-1003.192810	
95.757767	-19.916351	-1003.286255	
96.301750	-19.856161	-1003.467712	
96.682823	-19.801811	-1003.832092	
97.306335	-19.712635	-1003.794617	
97.945633	-19.637617	-1003.714233	
98.367332	-19.600260	-1003.917114	
98.957909	-19.518240	-1003.920288	
99.450325	-19.435518	-1004.083923	
99.981529	-19.390263	-1004.302856	
100.427490	-19.316320	-1004.669983	
100.592720	-19.228907	-1005.461609	
100.963524	-19.169678	-1006.136963	
101.650063	-19.087328	-1006.190735	
102.035004	-19.009890	-1006.602051	
102.344688	-18.933992	-1007.094482	
102.925041	-18.864616	-1007.239624	
103.278427	-18.803192	-1007.682678	
103.734459	-18.744766	-1008.020203	
104.256035	-18.669834	-1008.266724	
104.692596	-18.594921	-1008.615784	
105.078941	-18.518215	-1009.059570	
105.763695	-18.424513	-1009.121704	
106.162483	-18.363487	-1009.612915	
106.482742	-18.300413	-1010.151489	
106.913826	-18.213865	-1010.536011	
107.359367	-18.162428	-1010.871765	
107.846558	-18.081799	-1011.222900	
108.235176	-18.006474	-1011.675232	
108.506897	-17.987951	-1012.318359	
109.069214	-17.884615	-1012.459534	
109.718712	-17.816589	-1012.548889	
110.409081	-17.693329	-1012.687561	
110.405602	-17.654308	-1013.800171	
110.801559	-17.586132	-1014.383423	
111.198990	-17.528387	-1014.909851	
111.734703	-17.408022	-1015.262939	
111.975052	-17.384859	-1015.992615	
112.438713	-17.290319	-1016.425293	
112.768593	-17.226139	-1017.043457	
113.247551	-17.154554	-1017.473511	
113.757477	-17.058840	-1017.907471	
114.114052	-17.005644	-1018.584473	
114.451225	-16.928335	-1019.282349	
114.834427	-16.844305	-1019.876892	
115.211922	-16.765713	-1020.535278	
115.799500	-16.705227	-1020.845886	
116.039200	-16.632559	-1021.663757	
116.356247	-16.562634	-1022.416016	
116.843475	-16.480608	-1022.940125	
117.052544	-16.411791	-1023.775024	
117.348747	-16.362043	-1024.593140	
117.699646	-16.266409	-1025.325073	
118.749557	-16.154152	-1024.908936	
118.919029	-16.106827	-1025.755859	
119.243103	-16.036726	-1026.554565	
119.272034	-15.966440	-1027.805298	
119.798683	-15.855913	-1028.393433	
120.156860	-15.821711	-1029.311157	
120.443832	-15.723608	-1030.317017	
120.785065	-15.657793	-1031.241577	
121.015572	-15.579481	-1032.347412	
121.493309	-15.478894	-1033.267090	
121.834328	-15.379450	-1034.366577	
121.819298	-15.277792	-1036.059937	
121.857658	-15.236496	-1037.674927	
122.218163	-15.150204	-1038.754028	
122.907089	-15.046761	-1039.493286	
122.615097	-14.932596	-1041.933960	
122.781761	-14.882941	-1043.711182	
122.196533	-14.818780	-1046.760742	
122.188576	-14.747162	-1049.079224	
48.172546	-25.021360	-1010.652527	
49.277500	-24.940409	-1010.228821	
50.163818	-24.856062	-1009.593750	
50.927414	-24.752888	-1009.032104	
51.810970	-24.672827	-1008.346924	
52.520126	-24.599154	-1007.876221	
53.158627	-24.521566	-1007.495544	
54.049694	-24.435448	-1006.817871	
54.863594	-24.371943	-1006.276855	
55.637112	-24.289040	-1005.807800	
56.475220	-24.217293	-1005.268127	
57.196445	-24.140898	-1004.845764	
57.825848	-24.078222	-1004.509583	
58.476616	-24.034426	-1004.128235	
59.172321	-23.962761	-1003.874268	
59.900425	-23.865280	-1003.616394	
60.649605	-23.771969	-1003.255493	
61.257896	-23.704634	-1003.047974	
61.917866	-23.599504	-1002.765625	
62.745056	-23.524372	-1002.239807	
63.577278	-23.473553	-1001.666870	
64.337936	-23.442944	-1001.216370	
64.862717	-23.400539	-1001.125000	
65.507164	-23.292648	-1000.928772	
65.927048	-23.227661	-1001.061157	
66.638412	-23.126987	-1000.832581	
67.354393	-23.030346	-1000.574158	
67.797806	-22.993835	-1000.665283	
68.549011	-22.893187	-1000.415955	
69.038048	-22.834589	-1000.506897	
69.715187	-22.751507	-1000.345154	
70.206329	-22.683945	-1000.386658	
70.849648	-22.600306	-1000.229919	
71.454269	-22.535921	-1000.127319	
72.048813	-22.456825	-1000.028320	
72.573700	-22.399454	-1000.039490	
73.260483	-22.317961	-999.825439	
73.841690	-22.252569	-999.755737	
74.440430	-22.188156	-999.681824	
75.116112	-22.105995	-999.552612	
75.827499	-22.011932	-999.352234	
76.361435	-21.955545	-999.394226	
76.747643	-21.881981	-999.571167	
77.339111	-21.819141	-999.520447	
77.871841	-21.758108	-999.549438	
78.447548	-21.681625	-999.534668	
78.986115	-21.610565	-999.560364	
79.591568	-21.533691	-999.474548	
80.202538	-21.483221	-999.412781	
80.832283	-21.409952	-999.310730	
81.130951	-21.345261	-999.719360	
81.885887	-21.256357	-999.543396	
82.384621	-21.198484	-999.655701	
82.991928	-21.113995	-999.626343	
83.396347	-21.055397	-999.844543	
83.999962	-20.978022	-999.812317	
84.528336	-20.908680	-999.892029	
85.021049	-20.822598	-1000.001953	
85.636414	-20.760471	-999.991211	
86.064125	-20.694149	-1000.253662	
86.666290	-20.630840	-1000.283325	
87.278091	-20.562374	-1000.281616	
87.621826	-20.491444	-1000.594727	
88.049477	-20.426548	-1000.825989	
88.691246	-20.359819	-1000.770569	
89.062370	-20.288706	-1001.081604	
89.643158	-20.199453	-1001.104980	
90.133751	-20.152985	-1001.253540	
90.794861	-20.054665	-1001.206482	
91.182823	-20.011621	-1001.577332	
91.786949	-19.927195	-1001.618591	
92.286087	-19.855036	-1001.781189	
92.745178	-19.775618	-1001.991699	
93.242401	-19.724171	-1002.185303	
93.753410	-19.649441	-1002.356689	
94.191055	-19.580103	-1002.610352	
94.815201	-19.504381	-1002.635315	
95.167763	-19.438864	-1002.996277	
95.604088	-19.367765	-1003.266174	
96.247269	-19.278881	-1003.319946	
96.714508	-19.211554	-1003.579285	
97.242409	-19.145397	-1003.719849	
97.764465	-19.072483	-1003.810364	
98.262016	-19.024775	-1003.948669	
98.874130	-18.959745	-1003.895813	
99.472443	-18.866285	-1003.901611	
99.917519	-18.820469	-1004.158630	
100.476654	-18.737297	-1004.308777	
100.734421	-18.652782	-1005.027222	
100.759697	-18.598110	-1006.122253	
101.398453	-18.509417	-1006.291809	
101.850029	-18.464487	-1006.627563	
102.476814	-18.372726	-1006.691101	
102.888893	-18.314970	-1007.063232	
103.347404	-18.237413	-1007.363586	
103.765984	-18.161003	-1007.715637	
104.270508	-18.090408	-1008.000488	
104.682762	-18.018583	-1008.364990	
105.131165	-17.962868	-1008.757263	
105.652107	-17.880825	-1009.043518	
106.085083	-17.797550	-1009.438599	
106.464203	-17.726112	-1009.923828	
106.976646	-17.681610	-1010.212341	
107.312279	-17.587584	-1010.705261	
107.806816	-17.527609	-1011.015015	
108.232086	-17.444921	-1011.410889	
108.526161	-17.398445	-1012.000549	
109.037971	-17.309786	-1012.234680	
109.783905	-17.210062	-1012.191956	
110.433983	-17.108521	-1012.374023	
110.353569	-17.088863	-1013.637939	
