# .PCD v0.7 - Point Cloud Data file format
VERSION 0.7
FIELDS x y z
SIZE 4 4 4
TYPE F F F
COUNT 1 1 1
WIDTH 1596
HEIGHT 1
VIEWPOINT 0 0 0 1 0 0 0
POINTS 1596
DATA ascii
98.055634 -60.378117 -1030.4152
98.527946 -60.333069 -1030.8597
98.981949 -60.262127 -1031.2756
99.448975 -60.179104 -1031.6992
99.882004 -60.153069 -1032.1221
100.30373 -60.117104 -1032.5664
100.75603 -60.076122 -1033.2699
101.17687 -60.013737 -1033.5465
101.61972 -59.949615 -1034.0417
102.03844 -59.919056 -1034.5189
102.45644 -59.882996 -1035.0549
102.90012 -59.812843 -1035.447
103.32467 -59.773453 -1035.8912
103.73051 -59.723873 -1036.2404
104.13853 -59.744816 -1036.6196
104.49635 -59.698772 -1036.6196
-50.701496 -83.171295 -1172.6948
-49.677788 -83.124672 -1171.1312
-49.003136 -82.939827 -1170.5316
-48.369701 -82.930481 -1170.5431
-47.853722 -82.817101 -1170.8534
-47.132813 -82.670128 -1169.9459
-46.702938 -82.598518 -1171.3353
-46.275768 -82.699928 -1174.3966
-45.504498 -82.451599 -1172.2637
-45.068195 -82.415268 -1172.7244
-44.69313 -82.51371 -1175.9193
-43.860886 -82.60331 -1174.7089
-43.109818 -82.37159 -1175.7047
-42.813717 -82.573128 -1178.4771
-40.247185 -81.503593 -1172.8502
10.071649 -73.037224 -1076.7185
10.86425 -72.828712 -1075.6951
0 0 0
12.002387 -72.606773 -1075.1868
70.580154 -63.943977 -1024.0779
71.197586 -63.657837 -1023.7231
0 0 0
72.511444 -63.38578 -1023.6403
73.148582 -63.253067 -1023.2631
73.762695 -63.155407 -1023.1547
74.327965 -63.038418 -1023.0163
74.93882 -63.01556 -1023.3373
75.546402 -62.917137 -1023.2377
76.128014 -62.803291 -1023.0472
76.751122 -62.725277 -1023.1463
77.331482 -62.618965 -1022.9682
77.936462 -62.578396 -1023.2793
78.506607 -62.484535 -1022.9614
79.099846 -62.397236 -1022.8853
79.666122 -62.308907 -1022.7261
80.197983 -62.2253 -1022.6334
80.779732 -62.167988 -1022.8848
81.31871 -62.070015 -1022.8894
81.883781 -62.004562 -1023.0781
82.443352 -61.917488 -1023.0351
82.987411 -61.792641 -1022.8547
83.583839 -61.737507 -1023.1861
84.136314 -61.657185 -1023.2014
84.687714 -61.611591 -1023.4484
85.222908 -61.531788 -1023.3853
85.722351 -61.457462 -1023.6048
86.260742 -61.402851 -1023.9463
86.785225 -61.30809 -1023.9789
87.309219 -61.241272 -1024.2052
87.839638 -61.158051 -1024.1567
88.344063 -61.067707 -1024.1365
88.893036 -61.016861 -1024.5879
89.412712 -60.93615 -1024.8021
89.92627 -60.898369 -1024.8424
90.444046 -60.837173 -1025.3976
90.897766 -60.766075 -1025.4456
91.413704 -60.701942 -1025.787
91.910469 -60.618118 -1025.9998
92.393761 -60.528358 -1025.8276
92.904144 -60.497261 -1026.3705
93.383003 -60.409702 -1026.5313
93.914764 -60.332077 -1026.8943
94.400368 -60.288639 -1027.2455
94.887634 -60.201973 -1027.4185
95.362328 -60.162296 -1027.8051
95.807343 -60.096119 -1028.098
96.282959 -60.010204 -1028.3884
96.747543 -59.959785 -1028.8271
97.208099 -59.924515 -1029.3185
0 0 0
0 0 0
98.622025 -59.751526 -1030.5088
99.072586 -59.671791 -1030.7808
99.525505 -59.626511 -1031.0712
99.978058 -59.554386 -1031.605
100.37801 -59.489128 -1031.8424
100.83826 -59.450439 -1032.5634
101.2598 -59.425011 -1032.9901
101.69202 -59.382866 -1033.437
102.13039 -59.312237 -1033.9468
102.54919 -59.255131 -1034.3868
103.00014 -59.209949 -1034.9608
103.41467 -59.152164 -1035.3518
103.83934 -59.152954 -1036.0349
104.24593 -59.103725 -1036.7134
104.59514 -59.032906 -1037.0442
104.99313 -59.013157 -1037.7819
0 0 0
105.74322 -58.942322 -1037.7811
-50.051418 -82.294189 -1172.9655
-49.474926 -82.328979 -1173.7091
-46.585571 -81.811531 -1174.5656
-44.636272 -81.789688 -1175.2957
-43.45562 -81.943405 -1178.3126
-43.177601 -81.879547 -1178.7638
-42.904667 -81.832451 -1179.1515
-42.072842 -81.6968 -1177.5862
10.006001 -72.418343 -1076.1415
10.745427 -72.276306 -1075.5502
11.290583 -72.192329 -1075.9364
11.868265 -72.126785 -1075.1583
0 0 0
0 0 0
0 0 0
0 0 0
71.309563 -62.938076 -1023.2279
71.978325 -62.821453 -1023.0618
72.610725 -62.725582 -1023.0102
73.255836 -62.634285 -1022.758
73.865593 -62.542847 -1022.7142
74.437157 -62.465191 -1022.6227
75.058342 -62.406815 -1022.9561
75.643677 -62.300369 -1022.5509
76.230202 -62.227711 -1022.5692
76.85318 -62.093914 -1022.2668
77.421944 -62.051102 -1022.3784
78.018814 -61.912567 -1022.1374
78.606445 -61.891396 -1022.491
79.188904 -61.767296 -1022.1605
79.75312 -61.700344 -1022.3332
80.286713 -61.600018 -1022.1873
80.879242 -61.553726 -1022.7125
81.41906 -61.47789 -1022.5204
81.963806 -61.368889 -1022.2256
82.545509 -61.307163 -1022.596
83.081848 -61.208149 -1022.4374
83.682938 -61.149273 -1022.7742
84.245209 -61.114464 -1022.9663
84.793007 -61.021019 -1023.0602
85.317558 -60.94883 -1023.2472
85.807281 -60.82597 -1023.0314
86.336502 -60.772968 -1023.2986
86.860481 -60.703621 -1023.3918
87.382561 -60.6105 -1023.5972
87.920578 -60.554043 -1023.6553
88.428902 -60.475464 -1023.9579
88.959373 -60.420135 -1024.1797
89.489128 -60.348747 -1024.2562
90.003082 -60.266705 -1024.2786
90.526459 -60.224545 -1024.8247
90.980576 -60.132477 -1024.7562
91.492798 -60.06517 -1024.9457
91.990784 -60.017109 -1025.2583
92.475967 -59.944935 -1025.3545
92.992729 -59.876244 -1025.8862
93.460915 -59.792267 -1025.9449
93.977608 -59.745483 -1026.3898
94.47068 -59.645535 -1026.4609
94.965645 -59.591881 -1026.8401
95.443245 -59.54443 -1027.1753
95.884544 -59.483952 -1027.5706
96.358337 -59.447254 -1027.9821
96.835014 -59.363892 -1028.3221
97.291 -59.305241 -1028.6349
97.778618 -59.276001 -1029.1682
98.213333 -59.211979 -1029.319
98.691528 -59.119602 -1029.6951
99.151138 -59.058987 -1030.0549
99.619797 -59.004295 -1030.4937
100.06086 -58.957199 -1031.071
100.46526 -58.887493 -1031.2079
100.9235 -58.885704 -1032.0613
101.34664 -58.832737 -1032.4186
101.78601 -58.75293 -1032.8146
0 0 0
102.65012 -58.637058 -1033.7692
103.09849 -58.5793 -1034.4678
103.51707 -58.510098 -1034.7177
103.95388 -58.465626 -1035.5819
104.35891 -58.451504 -1036.2931
104.7095 -58.389194 -1036.4781
105.10449 -58.408634 -1037.5326
105.49994 -58.338223 -1037.9448
105.8728 -58.27977 -1038.4424
106.26077 -58.262108 -1039.1802
106.6088 -58.293877 -1039.4761
0 0 0
-50.043968 -81.637337 -1176.6794
-48.718449 -81.474556 -1175.2621
-48.375107 -81.557724 -1178.6395
-47.72847 -81.449852 -1178.5344
-44.489422 -81.125427 -1181.3607
-43.922104 -81.16378 -1180.9004
-43.426941 -80.884628 -1180.24
-42.581409 -80.481026 -1180.0847
9.8195143 -71.754639 -1076.5433
10.601367 -71.645844 -1075.7385
11.196074 -71.574181 -1075.9723
11.761992 -71.414261 -1075.4984
65.507782 -63.609325 -1024.4105
66.166855 -63.422684 -1025.0867
66.889961 -63.032978 -1024.0938
67.550034 -62.885223 -1023.8765
68.17717 -62.78764 -1023.5371
68.86499 -62.722702 -1023.6581
69.509727 -62.592953 -1023.3523
70.14431 -62.477634 -1023.084
70.789604 -62.369949 -1022.8443
71.412537 -62.290039 -1022.5166
72.079361 -62.198856 -1022.657
72.725151 -62.101337 -1022.4294
73.356125 -62.004936 -1022.1071
73.980301 -61.926853 -1022.2916
0 0 0
75.139175 -61.727051 -1021.6601
75.751144 -61.678299 -1022.0008
76.319275 -61.5811 -1021.835
76.952705 -61.505447 -1022.0361
77.516846 -61.403351 -1021.9346
78.115036 -61.338936 -1021.9699
78.701485 -61.269497 -1021.9659
79.282921 -61.117393 -1021.5202
79.857201 -61.071659 -1021.812
80.370323 -60.991226 -1021.7347
80.954384 -60.934998 -1022.1503
81.515053 -60.847733 -1022.1459
82.054878 -60.778118 -1022.027
82.634163 -60.688507 -1022.0989
0 0 0
83.763283 -60.537182 -1022.1978
84.329506 -60.45224 -1022.2396
84.871681 -60.381401 -1022.4939
85.403282 -60.272366 -1022.3555
85.883438 -60.231838 -1022.5229
86.412796 -60.186974 -1022.7859
86.948723 -60.087162 -1022.9044
87.464287 -60.018623 -1023.0894
88.006798 -59.953125 -1023.4014
88.502312 -59.844341 -1023.1309
89.05352 -59.793846 -1023.4484
89.582253 -59.724983 -1023.6613
90.095879 -59.670303 -1023.866
0 0 0
91.068321 -59.519207 -1024.2131
91.592628 -59.486149 -1024.8662
92.07402 -59.394394 -1024.7389
92.553658 -59.289955 -1024.5802
0 0 0
0 0 0
94.072563 -59.096966 -1025.6969
94.587914 -59.05249 -1026.2942
95.064034 -59.018475 -1026.4907
95.537254 -58.972862 -1026.9913
95.977982 -58.87141 -1027.0148
96.462288 -58.833252 -1027.6141
96.923866 -58.773956 -1027.979
97.360207 -58.676708 -1027.9797
97.853889 -58.627728 -1028.4949
98.310333 -58.582989 -1028.9299
98.791222 -58.523327 -1029.2159
99.245049 -58.434898 -1029.557
99.709435 -58.376606 -1029.9221
100.14096 -58.321949 -1030.2415
100.55402 -58.269779 -1030.5953
101.01488 -58.21904 -1031.3309
101.45449 -58.174538 -1031.954
101.89047 -58.131657 -1032.4523
102.32225 -58.035892 -1032.6025
0 0 0
103.19573 -57.97744 -1034.027
103.6216 -57.924133 -1034.5065
104.02755 -57.859009 -1034.9067
104.82415 -57.792137 -1036.1533
105.22342 -57.737595 -1036.8833
105.59248 -57.677296 -1037.334
106.3688 -57.603352 -1038.7227
106.74261 -57.573765 -1039.3254
107.12392 -57.546707 -1040.1361
107.4785 -57.495338 -1040.4307
-45.152336 -80.124214 -1180.8066
-44.717117 -79.769524 -1182.1295
9.724349 -71.163925 -1076.3971
10.481647 -71.009369 -1075.5953
11.110873 -70.88913 -1075.7963
63.480392 -63.154453 -1024.892
64.213921 -62.889221 -1024.9386
64.894188 -62.723537 -1024.3534
65.624962 -62.598457 -1024.5331
66.319756 -62.446838 -1023.8234
66.996025 -62.333038 -1023.5809
67.68988 -62.254147 -1023.2637
68.297295 -62.157932 -1023.0214
68.977997 -62.043755 -1023.0461
69.616516 -61.9697 -1022.7422
70.250534 -61.872429 -1022.6422
70.898132 -61.789631 -1022.5458
71.519875 -61.702637 -1022.3183
72.180145 -61.58366 -1021.9528
72.822044 -61.485329 -1021.8876
73.455498 -61.373051 -1021.4716
74.075012 -61.318222 -1021.7424
74.614746 -61.225636 -1021.2901
75.237045 -61.122589 -1021.3778
75.82933 -61.065186 -1021.4447
76.397156 -60.954712 -1021.1702
77.046814 -60.906368 -1021.4572
77.594772 -60.800774 -1021.1768
78.196274 -60.705467 -1021.1663
78.787773 -60.659573 -1021.4894
79.358864 -60.552135 -1021.2792
79.93222 -60.485588 -1021.246
80.462364 -60.394741 -1021.2947
81.037148 -60.352501 -1021.7454
81.601471 -60.233082 -1021.4051
82.143288 -60.16433 -1021.4156
82.725479 -60.086857 -1021.5936
83.255592 -60.022915 -1021.8541
83.833275 -59.921398 -1021.6708
84.383827 -59.842625 -1021.5991
84.93483 -59.775879 -1021.8575
85.477211 -59.694695 -1022.0028
85.956665 -59.647873 -1022.0554
86.51001 -59.592243 -1022.4518
87.020317 -59.526161 -1022.5703
87.53492 -59.414852 -1022.3878
88.101044 -59.337814 -1022.6931
88.600761 -59.269848 -1022.7374
89.139397 -59.232155 -1023.2933
89.656273 -59.120228 -1023.1998
90.171562 -59.085468 -1023.5057
90.682648 -59.023407 -1023.7398
91.153282 -58.902817 -1023.6237
91.648315 -58.846844 -1023.9467
92.15728 -58.796848 -1024.3602
92.634811 -58.735462 -1024.5129
0 0 0
93.63279 -58.592846 -1024.988
94.155685 -58.516319 -1025.3395
94.659958 -58.463535 -1025.7786
95.145073 -58.399284 -1025.9469
95.611328 -58.329021 -1026.3306
96.052559 -58.269913 -1026.4178
96.53627 -58.229057 -1027.0137
97.009491 -58.184341 -1027.4873
97.465431 -58.099636 -1027.6344
97.943108 -58.049175 -1028.1807
98.398361 -57.960835 -1028.3589
98.870087 -57.905724 -1028.6659
99.327377 -57.810959 -1028.9406
99.800766 -57.787621 -1029.5514
100.24681 -57.740585 -1029.9752
100.63757 -57.675335 -1030.2113
101.09367 -57.623329 -1030.8092
101.52382 -57.57457 -1031.1202
0 0 0
102.40669 -57.446136 -1031.8818
102.8385 -57.387741 -1032.3694
0 0 0
103.7191 -57.311626 -1033.8744
104.14048 -57.260654 -1034.4993
104.53977 -57.148064 -1034.7661
104.91068 -57.145908 -1035.4326
105.31123 -57.0909 -1036.0958
105.69512 -57.034275 -1036.8256
106.07973 -57.024582 -1037.4254
106.4795 -56.977757 -1038.214
106.84945 -56.961079 -1038.8524
107.2527 -56.899628 -1039.6569
0 0 0
107.94703 -56.857082 -1040.7786
108.29475 -56.82481 -1041.4241
9.5613956 -70.676567 -1077.2297
10.405796 -70.360298 -1075.1652
11.493792 -70.280647 -1075.8147
62.148937 -62.782146 -1026.2576
63.600712 -62.337761 -1024.6068
64.351974 -62.184631 -1024.1453
65.032387 -62.131672 -1024.3301
65.735985 -61.974792 -1023.4538
66.438004 -61.883488 -1023.3477
67.107147 -61.76392 -1022.7996
67.79808 -61.670372 -1022.7541
68.39164 -61.597134 -1022.8032
69.083977 -61.480091 -1022.4374
69.692986 -61.37788 -1021.9366
70.350929 -61.336342 -1022.2086
70.993111 -61.234798 -1021.9052
71.607674 -61.1185 -1021.6594
72.277382 -60.997028 -1021.3041
72.894882 -60.907154 -1021.2128
73.531456 -60.813427 -1021.025
74.147865 -60.75753 -1021.1647
74.718674 -60.665768 -1020.903
75.326828 -60.589939 -1021.2903
75.922455 -60.520908 -1021.1448
76.495529 -60.399715 -1020.7421
77.111694 -60.349972 -1021.0103
77.666763 -60.239201 -1020.6823
78.277184 -60.155899 -1020.7762
78.874496 -60.101273 -1021.0974
79.446037 -59.994396 -1020.6044
80.024574 -59.898598 -1020.7126
80.535431 -59.857399 -1020.7067
81.108292 -59.770103 -1021.0405
81.650459 -59.682896 -1020.761
82.219872 -59.596668 -1020.96
82.802422 -59.558372 -1021.3122
83.331848 -59.444199 -1021.1184
83.913513 -59.413296 -1021.4893
84.460617 -59.297852 -1021.2513
85.007462 -59.212814 -1021.2806
85.562347 -59.175594 -1021.737
0 0 0
86.569885 -59.022045 -1021.7795
87.094658 -58.948647 -1021.9432
87.620804 -58.879101 -1022.0343
0 0 0
88.676353 -58.712967 -1022.3494
89.197952 -58.643032 -1022.5893
89.716293 -58.572876 -1022.7981
90.25296 -58.507172 -1023.0123
90.756569 -58.436024 -1023.25
91.207848 -58.353867 -1023.1588
91.722046 -58.312508 -1023.5741
92.209839 -58.233589 -1023.822
0 0 0
93.22905 -58.119499 -1024.4259
93.708824 -58.034664 -1024.5605
94.212669 -57.953991 -1024.7086
94.715195 -57.918644 -1025.1886
95.211327 -57.829464 -1025.4183
95.679962 -57.765972 -1025.7769
0 0 0
96.59761 -57.657707 -1026.203
97.065529 -57.596104 -1026.6737
97.53923 -57.545837 -1027.2523
98.009354 -57.487278 -1027.5112
98.458588 -57.417889 -1027.791
98.942444 -57.367355 -1028.386
99.402809 -57.298504 -1028.6233
0 0 0
100.31702 -57.183952 -1029.4204
100.72282 -57.108414 -1029.6479
101.1723 -57.074932 -1030.3883
101.60567 -57.018486 -1030.741
102.05962 -56.962387 -1031.4172
102.50897 -56.922573 -1031.6793
102.9202 -56.840637 -1031.7906
103.36872 -56.824196 -1032.7279
103.81879 -56.74012 -1033.3077
104.22337 -56.672432 -1033.6862
104.63689 -56.621746 -1034.327
104.98105 -56.573425 -1034.469
105.39082 -56.544331 -1035.4586
0 0 0
106.16832 -56.471729 -1036.8506
106.54652 -56.401375 -1037.3367
107.33006 -56.359886 -1039.1322
107.70858 -56.291821 -1039.6698
108.06592 -56.23975 -1040.2045
108.40549 -56.216705 -1040.9119
108.72516 -56.19175 -1041.4456
109.05906 -56.189144 -1042.1445
9.4832478 -69.999199 -1076.405
10.293762 -69.859825 -1075.3555
10.866706 -69.882256 -1075.8204
11.423945 -69.656982 -1075.8182
60.805408 -62.362865 -1025.9716
61.536972 -62.113129 -1025.1815
62.294483 -62.0009 -1025.1718
63.004536 -61.856731 -1024.6084
63.719444 -61.781155 -1024.1703
64.467445 -61.635262 -1023.6999
65.127419 -61.539753 -1023.4305
0 0 0
66.515984 -61.327576 -1022.9588
67.212181 -61.239044 -1022.5715
67.89222 -61.122311 -1022.356
68.484596 -61.057083 -1022.1969
69.163261 -60.942303 -1021.7975
69.807228 -60.828495 -1021.5896
70.440842 -60.757015 -1021.4725
71.089439 -60.680702 -1021.577
71.700073 -60.583786 -1021.2249
72.356049 -60.505562 -1021.1177
72.987663 -60.396454 -1020.9409
73.615852 -60.310745 -1020.8096
74.234138 -60.207653 -1020.5435
74.789253 -60.13319 -1020.5115
75.40535 -60.020603 -1020.6281
75.992973 -59.991444 -1020.653
76.565697 -59.903568 -1020.5614
77.183548 -59.813946 -1020.6573
77.738113 -59.684303 -1020.1323
78.350487 -59.624577 -1020.3444
78.93277 -59.545013 -1020.446
79.508072 -59.441895 -1020.1988
80.095245 -59.406273 -1020.5453
80.620743 -59.307308 -1020.4274
81.177925 -59.2323 -1020.4734
81.715057 -59.153454 -1020.4242
82.285965 -59.077976 -1020.6671
82.853844 -59.006874 -1020.6382
83.387863 -58.918182 -1020.7195
83.975739 -58.86475 -1020.8513
84.535782 -58.74992 -1020.7951
85.075676 -58.680946 -1020.9583
85.605438 -58.621178 -1021.0081
86.109573 -58.554077 -1021.2803
86.637077 -58.482121 -1021.3301
87.16584 -58.404732 -1021.4148
87.681328 -58.332523 -1021.5444
88.231461 -58.265972 -1021.8304
88.731758 -58.201412 -1022.0108
89.257828 -58.086365 -1021.9354
89.78952 -58.060055 -1022.3241
90.306892 -57.979431 -1022.5445
90.814323 -57.940922 -1022.9201
0 0 0
91.786263 -57.794106 -1023.2626
92.276955 -57.729275 -1023.428
92.789932 -57.647186 -1023.8908
93.274948 -57.57288 -1023.7825
93.76236 -57.509678 -1024.0409
94.29142 -57.434555 -1024.4895
94.786659 -57.3811 -1024.9839
95.282425 -57.326607 -1025.2196
95.755005 -57.261398 -1025.5089
96.192909 -57.202766 -1025.6091
96.677055 -57.134338 -1026.0065
97.132629 -57.082417 -1026.5135
97.590393 -57.031219 -1026.7039
98.084885 -56.945667 -1027.1317
98.526672 -56.877407 -1027.2556
99.014099 -56.816555 -1027.8082
99.469543 -56.737007 -1028.1287
99.92141 -56.692749 -1028.3967
100.37318 -56.632252 -1028.9452
100.78311 -56.579964 -1029.0433
101.25731 -56.55711 -1030.0557
101.68497 -56.473122 -1030.1736
102.13088 -56.400669 -1030.624
102.58028 -56.358215 -1031.0518
102.99401 -56.292377 -1031.4619
103.44418 -56.243454 -1032.0425
103.88547 -56.231659 -1032.6995
104.30576 -56.134171 -1033.0632
104.70912 -56.066048 -1033.7009
105.07882 -56.053417 -1034.3011
105.47597 -55.994488 -1034.8062
105.87824 -55.956638 -1035.562
106.27267 -55.904018 -1036.2522
106.65593 -55.858349 -1036.8204
107.04181 -55.810642 -1037.4384
107.43587 -55.769802 -1038.4558
107.80727 -55.720665 -1039.0995
108.16146 -55.662853 -1039.6436
108.52724 -55.659229 -1040.6262
108.86211 -55.66238 -1041.3691
109.17665 -55.645859 -1041.7046
109.49851 -55.583771 -1041.7654
10.078815 -69.34729 -1075.7319
10.761278 -69.181305 -1075.3079
59.384815 -61.906986 -1026.1377
0 0 0
60.981529 -61.639709 -1025.7256
0 0 0
62.4198 -61.36729 -1024.2964
63.117374 -61.299881 -1023.915
63.829315 -61.201225 -1023.4688
64.57415 -61.096439 -1023.4548
65.236786 -60.966469 -1022.9293
65.97245 -60.890095 -1022.8725
66.629784 -60.765491 -1022.3574
67.325455 -60.649914 -1021.9349
67.972893 -60.58847 -1022.0193
0 0 0
69.258209 -60.374599 -1021.6009
69.893791 -60.269836 -1021.1751
70.509438 -60.209309 -1021.0331
71.178207 -60.135948 -1021.134
71.782173 -60.008606 -1020.61
72.447426 -59.889233 -1020.3091
73.06044 -59.818176 -1020.185
73.700005 -59.716682 -1020.1481
74.313271 -59.656593 -1020.3927
74.860809 -59.571072 -1020.1049
75.483208 -59.48336 -1020.19
76.066833 -59.407028 -1020.2778
76.638977 -59.309933 -1019.8186
77.266808 -59.231106 -1020.0238
77.83226 -59.160133 -1020.0229
78.427383 -59.058125 -1019.8792
79.011688 -59.005711 -1020.1202
79.601654 -58.90799 -1020.0731
80.16227 -58.806732 -1019.7727
0 0 0
81.251923 -58.679558 -1019.9783
81.796318 -58.586208 -1020.0463
82.348701 -58.52681 -1020.1887
82.929062 -58.447742 -1020.2463
83.460358 -58.354504 -1020.3205
84.039452 -58.280624 -1020.3903
84.601151 -58.198654 -1020.381
85.147919 -58.141323 -1020.5715
85.686668 -58.047153 -1020.7442
0 0 0
86.719475 -57.947212 -1021.2166
87.232239 -57.854698 -1021.2883
87.738297 -57.772713 -1020.9794
88.29673 -57.712029 -1021.4445
88.79274 -57.607117 -1021.4131
89.330673 -57.545597 -1021.707
89.844444 -57.478046 -1021.8008
90.37574 -57.446449 -1022.3625
90.877167 -57.35397 -1022.262
91.343864 -57.281097 -1022.3851
91.863747 -57.23822 -1022.8658
92.352806 -57.155403 -1022.9749
92.84156 -57.100121 -1023.228
93.35965 -57.027863 -1023.671
93.826447 -56.976589 -1023.703
94.338287 -56.899532 -1024.0516
94.851776 -56.801952 -1024.5161
95.339699 -56.768257 -1024.8035
95.801567 -56.692982 -1024.8726
96.254456 -56.601551 -1024.9504
96.741295 -56.58699 -1025.5116
97.197113 -56.533298 -1025.835
97.682556 -56.502754 -1026.4656
0 0 0
98.595055 -56.307701 -1026.662
99.07058 -56.270119 -1027.321
99.550034 -56.223598 -1027.822
100.01627 -56.132645 -1028.0566
100.45956 -56.084095 -1028.4762
100.86908 -56.042423 -1028.8762
101.31725 -55.95472 -1029.1887
101.75741 -55.901848 -1029.7689
102.19861 -55.856224 -1030.1475
102.63913 -55.777645 -1030.5928
103.06152 -55.714443 -1030.8191
103.52142 -55.688904 -1031.5641
103.94842 -55.614498 -1031.9954
104.37104 -55.540642 -1032.4618
104.79379 -55.513378 -1033.2285
0 0 0
105.58443 -55.456436 -1034.5752
105.97305 -55.407864 -1035.1077
106.36073 -55.324764 -1035.5461
106.75184 -55.310291 -1036.2328
107.13449 -55.261929 -1036.9406
107.52294 -55.203281 -1037.6586
107.9091 -55.175419 -1038.5558
108.28993 -55.144283 -1039.4805
108.63239 -55.08485 -1040.0457
108.94394 -55.036812 -1040.4381
0 0 0
109.62063 -54.993996 -1041.8573
109.91716 -55.019337 -1041.1449
9.9269991 -68.649139 -1075.9353
10.619387 -68.588043 -1075.7285
57.884312 -61.585445 -1026.8112
58.744705 -61.42939 -1026.6793
59.547878 -61.251644 -1025.5856
60.335587 -61.110851 -1024.5764
61.09597 -61.030594 -1024.6504
0 0 0
62.530632 -60.808918 -1023.9163
63.248951 -60.705391 -1023.4623
63.956089 -60.578133 -1022.8724
64.679733 -60.483574 -1022.5383
65.344101 -60.384495 -1022.2167
0 0 0
66.742287 -60.179352 -1021.6886
67.412514 -60.081398 -1021.4589
68.061386 -59.990868 -1021.2073
68.68354 -59.894424 -1021.0588
69.338257 -59.781864 -1020.8106
69.976418 -59.742027 -1020.9372
70.622383 -59.638428 -1020.5812
71.260567 -59.538532 -1020.3035
71.872406 -59.452717 -1020.201
72.53421 -59.367374 -1020.2392
73.152695 -59.251896 -1019.8587
73.789955 -59.143635 -1019.9317
74.403038 -59.086792 -1019.8514
74.934067 -59.001503 -1019.7548
75.546333 -58.914387 -1019.6583
76.147659 -58.853848 -1019.7865
76.726135 -58.750294 -1019.5256
77.342056 -58.667328 -1019.7502
77.899147 -58.559383 -1019.2112
78.49939 -58.507378 -1019.5402
79.086441 -58.442268 -1019.6134
79.656525 -58.335766 -1019.407
80.231422 -58.240162 -1019.3799
80.763252 -58.202747 -1019.7202
81.321304 -58.111576 -1019.7534
81.868088 -58.048183 -1019.7424
82.423836 -57.936134 -1019.4279
82.99752 -57.871941 -1019.8818
83.529877 -57.811863 -1019.7831
84.119904 -57.727657 -1020.0889
84.663849 -57.636913 -1019.9211
85.207794 -57.586044 -1020.2101
85.753601 -57.503792 -1020.3785
0 0 0
86.777809 -57.369926 -1020.7587
87.293167 -57.280426 -1020.7415
87.815201 -57.238594 -1020.885
88.366798 -57.150295 -1021.1457
88.870285 -57.049656 -1021.1481
89.392296 -56.992836 -1021.2487
89.910141 -56.910843 -1021.4659
90.425873 -56.862476 -1021.6062
90.936554 -56.793648 -1021.9266
91.401642 -56.736931 -1022.0942
91.914246 -56.651527 -1022.1953
92.421829 -56.602615 -1022.7365
92.902847 -56.518261 -1022.6285
93.408913 -56.455639 -1023.0228
93.894234 -56.386211 -1023.1002
94.407928 -56.343998 -1023.6367
94.917099 -56.269421 -1023.8752
95.400803 -56.187325 -1024.2505
95.877937 -56.119625 -1024.5477
96.325066 -56.062691 -1024.7347
96.80497 -55.985134 -1024.9937
97.280464 -55.933174 -1025.4691
97.727814 -55.871307 -1025.4919
98.214684 -55.828655 -1026.0774
98.675827 -55.756836 -1026.3481
99.16217 -55.698879 -1026.7896
99.623192 -55.643654 -1027.2275
100.08385 -55.582962 -1027.6552
0 0 0
100.947 -55.451836 -1028.252
101.38784 -55.367886 -1028.656
101.83427 -55.352654 -1029.2603
102.26481 -55.285419 -1029.545
102.72507 -55.231098 -1030.1403
103.13734 -55.133358 -1030.2332
103.60077 -55.122059 -1031.0923
104.04219 -55.081421 -1031.7747
104.45824 -54.996433 -1032.0073
104.85852 -54.953876 -1032.595
105.24574 -54.90263 -1033.2111
105.653 -54.860981 -1033.7694
106.05962 -54.798149 -1034.5371
106.45778 -54.749226 -1035.0715
106.85483 -54.76181 -1035.8713
107.24638 -54.669548 -1036.4567
107.62027 -54.612274 -1036.9858
108.01171 -54.611271 -1037.8961
108.38583 -54.543591 -1038.6322
108.73438 -54.495438 -1039.3888
0 0 0
109.40381 -54.393211 -1040.4642
0 0 0
0 0 0
9.7174006 -68.192513 -1076.8019
10.464479 -68.0606 -1076.5558
56.412651 -61.237514 -1027.7241
57.278049 -61.092915 -1027.3508
0 0 0
0 0 0
0 0 0
0 0 0
0 0 0
61.927418 -60.345264 -1023.6249
62.666973 -60.25705 -1023.4337
63.356327 -60.12965 -1022.6513
64.070137 -60.047531 -1022.7173
64.793877 -59.959061 -1022.2384
65.436768 -59.802799 -1021.5664
66.151474 -59.747215 -1021.7648
66.82608 -59.637348 -1021.3799
67.494888 -59.514771 -1020.6628
68.1586 -59.413792 -1020.7467
68.752983 -59.324936 -1020.3129
69.437317 -59.229588 -1020.3495
70.072342 -59.188492 -1020.682
70.687508 -59.065605 -1020.0942
71.336945 -58.964249 -1019.835
71.945847 -58.869476 -1019.4726
72.621803 -58.788857 -1019.7022
73.235191 -58.703506 -1019.5111
73.864914 -58.612034 -1019.4965
74.471634 -58.56115 -1019.598
75.021469 -58.438725 -1019.2328
75.628983 -58.340176 -1019.1516
76.218674 -58.295189 -1019.1749
76.794525 -58.20488 -1019.2018
77.405403 -58.130375 -1019.142
77.972961 -58.033867 -1019.1268
78.57888 -57.955349 -1019.1007
79.164757 -57.873871 -1019.0871
79.734985 -57.78236 -1019.124
80.324066 -57.704884 -1019.3699
0 0 0
81.386284 -57.590954 -1019.26
81.934952 -57.504406 -1019.3921
82.485535 -57.407532 -1019.3771
83.059586 -57.335419 -1019.3934
83.588867 -57.246399 -1019.3306
84.160271 -57.174038 -1019.4167
84.742943 -57.093349 -1019.6261
85.275238 -57.020294 -1019.6532
85.811859 -56.948776 -1019.8898
86.295174 -56.868404 -1019.8814
86.842865 -56.807804 -1020.0741
87.355591 -56.716118 -1020.1201
87.86895 -56.654541 -1020.2633
88.405403 -56.573158 -1020.5047
88.904175 -56.491959 -1020.4138
89.456284 -56.454086 -1020.9247
89.979805 -56.383087 -1021.0919
90.498589 -56.293476 -1021.3606
91.004379 -56.240814 -1021.5416
91.466583 -56.14143 -1021.4412
91.978935 -56.117275 -1021.8551
92.460419 -56.050117 -1021.9476
92.973877 -55.977589 -1022.3329
93.471367 -55.920673 -1022.523
93.938004 -55.853535 -1022.5259
94.489502 -55.787022 -1023.1307
94.976456 -55.703114 -1023.3926
95.456078 -55.606033 -1023.4355
95.93544 -55.574623 -1023.9854
96.372368 -55.489422 -1024.0773
0 0 0
97.321312 -55.379257 -1024.9402
97.790016 -55.31712 -1025.2516
98.279007 -55.281353 -1025.707
98.73513 -55.175926 -1025.647
99.20462 -55.123112 -1025.9978
99.674599 -55.056293 -1026.6461
100.13644 -55.01878 -1027.0298
100.59943 -54.979645 -1027.6843
100.99339 -54.914024 -1027.5414
101.44466 -54.831657 -1028.1022
101.91248 -54.791504 -1028.9335
102.34156 -54.709782 -1029.0718
102.80604 -54.668873 -1029.7418
103.21666 -54.611439 -1029.8042
103.67696 -54.567989 -1030.6333
104.11252 -54.508213 -1031.0997
104.53877 -54.482323 -1031.7345
104.93727 -54.413952 -1032.283
105.33002 -54.337486 -1032.7125
105.7572 -54.29414 -1033.4468
106.14381 -54.269501 -1033.9893
106.52911 -54.195541 -1034.4624
106.94975 -54.128365 -1035.2279
107.32938 -54.100315 -1035.816
107.72701 -54.052326 -1036.5957
108.10546 -54.01384 -1037.2767
108.4775 -53.963417 -1037.8203
108.83042 -53.917141 -1038.4893
109.16529 -53.869522 -1039.2073
109.52545 -53.879616 -1040.2704
109.87308 -53.869068 -1041.1783
110.1926 -53.842442 -1041.6305
0 0 0
9.5888786 -67.608955 -1077.1272
10.278049 -67.453522 -1076.9692
54.838989 -60.990585 -1028.8115
55.703709 -60.72662 -1027.611
56.55941 -60.6754 -1027.6194
57.419029 -60.488647 -1026.4834
58.198414 -60.326324 -1025.2434
59.062485 -60.271225 -1025.5548
59.827652 -60.115829 -1024.3069
60.609222 -59.979649 -1023.6509
61.354939 -59.860298 -1023.1339
0 0 0
62.773067 -59.653893 -1022.4985
0 0 0
0 0 0
64.9021 -59.380203 -1022.0408
65.534248 -59.254833 -1021.045
66.24839 -59.171562 -1021.0572
66.922531 -59.056442 -1020.7015
67.607735 -58.989872 -1020.7732
68.249702 -58.867458 -1020.1888
68.855377 -58.792603 -1020.1975
69.513481 -58.700848 -1019.8564
70.153023 -58.596077 -1019.8688
70.780586 -58.495251 -1019.3905
71.429665 -58.464119 -1019.8323
72.036148 -58.342823 -1019.5811
72.695969 -58.258545 -1019.4881
73.317017 -58.16927 -1019.3158
73.93409 -58.043896 -1018.8379
74.545982 -57.985893 -1019.0375
75.102409 -57.893318 -1018.7733
75.697235 -57.802578 -1018.7125
76.300682 -57.754181 -1019.0104
76.868401 -57.669521 -1018.8563
77.470474 -57.537777 -1018.6175
78.042465 -57.504665 -1018.6453
78.646339 -57.415775 -1018.7328
79.216187 -57.308407 -1018.3375
79.788399 -57.235962 -1018.6108
80.36573 -57.160908 -1018.5587
80.874565 -57.058941 -1018.381
81.449608 -57.012016 -1018.8029
82.008698 -56.948856 -1019.0108
82.541451 -56.848995 -1018.6423
83.124222 -56.804882 -1019.1755
0 0 0
84.22541 -56.611752 -1018.8723
84.797562 -56.558659 -1019.3104
85.337479 -56.492275 -1019.3713
85.862511 -56.382893 -1019.3488
86.352425 -56.320755 -1019.2876
86.892776 -56.253803 -1019.6102
87.420517 -56.184063 -1019.8347
87.922935 -56.104012 -1019.7027
88.480888 -56.064663 -1020.2805
0 0 0
89.504967 -55.90543 -1020.3782
90.030067 -55.836987 -1020.5953
90.558578 -55.743965 -1020.8436
91.062698 -55.701885 -1020.9791
0 0 0
92.033104 -55.540367 -1021.3736
92.5383 -55.510395 -1021.8263
93.035072 -55.44054 -1021.9905
93.533936 -55.392067 -1022.2576
94.012085 -55.287457 -1022.1912
94.551979 -55.207989 -1022.5818
95.042702 -55.177391 -1023.1104
95.530052 -55.104679 -1023.2811
95.988869 -55.009518 -1023.437
96.438347 -54.956493 -1023.7217
96.944351 -54.908173 -1024.4222
97.403252 -54.851078 -1024.6067
97.855598 -54.782211 -1024.8169
98.33532 -54.716656 -1025.089
98.784462 -54.630974 -1025.2089
99.271988 -54.600323 -1025.8325
99.743576 -54.516216 -1026.205
0 0 0
100.66376 -54.419647 -1027.1885
101.06736 -54.363613 -1027.3022
101.52353 -54.327602 -1027.8827
101.96375 -54.233608 -1028.2653
102.3974 -54.136814 -1028.5431
102.85229 -54.145611 -1029.2849
103.27976 -54.070221 -1029.5609
103.73687 -53.993668 -1029.9274
0 0 0
104.60617 -53.896542 -1031.1156
105.02279 -53.826168 -1031.7694
0 0 0
105.80685 -53.763039 -1032.7949
106.21035 -53.675522 -1033.2722
106.60693 -53.641331 -1033.8875
107.02573 -53.5686 -1034.5577
107.39536 -53.508789 -1035.0944
107.80281 -53.490936 -1036.04
108.17757 -53.458057 -1036.6813
108.56509 -53.437813 -1037.3676
108.92736 -53.35651 -1037.9707
109.26955 -53.350254 -1038.8333
109.62683 -53.314178 -1039.8336
109.96855 -53.27953 -1040.5942
110.31321 -53.251095 -1041.2152
110.63578 -53.219646 -1041.3951
54.100811 -60.435356 -1028.3914
55.020435 -60.238216 -1027.1797
55.887009 -60.120571 -1026.8744
56.738136 -60.01392 -1026.3004
57.582371 -59.876789 -1025.4316
0 0 0
59.17767 -59.644428 -1024.2617
0 0 0
60.734364 -59.380405 -1023.1311
61.487778 -59.312592 -1023.1703
62.146187 -59.237251 -1022.7573
62.880722 -59.09502 -1022.2225
63.58392 -58.985481 -1021.7355
64.256149 -58.897816 -1021.4793
64.977188 -58.805183 -1021.1633
65.650902 -58.691864 -1020.8777
66.344109 -58.59296 -1020.8627
67.005463 -58.474602 -1020.1296
67.686363 -58.402702 -1020.2171
68.349358 -58.330715 -1020.1069
68.935555 -58.218437 -1019.8117
69.614754 -58.117107 -1019.5064
70.234016 -58.045345 -1019.5746
70.834152 -57.963963 -1019.3184
71.499855 -57.84166 -1019.0703
72.110283 -57.738392 -1018.6132
0 0 0
73.392059 -57.599525 -1018.7163
74.015228 -57.526775 -1018.7817
74.634514 -57.422184 -1018.6182
75.170341 -57.332588 -1018.149
75.774384 -57.256409 -1018.4936
76.34848 -57.156059 -1018.2188
76.93811 -57.123394 -1018.6105
77.541039 -56.999016 -1018.319
78.099625 -56.917133 -1018.176
78.711365 -56.853756 -1018.3594
79.278557 -56.752281 -1018.1268
79.862526 -56.696831 -1018.3139
80.425835 -56.588127 -1018.1586
80.94796 -56.545048 -1018.2459
81.513702 -56.429798 -1018.1922
82.063301 -56.358814 -1018.2477
0 0 0
83.175018 -56.205624 -1018.3947
83.721428 -56.118149 -1018.4349
84.282883 -56.054241 -1018.5754
84.852814 -56.002144 -1018.7996
85.391502 -55.891472 -1018.7347
85.928925 -55.851337 -1019.0913
0 0 0
86.94651 -55.711391 -1019.3027
87.482903 -55.637951 -1019.5261
87.983902 -55.552948 -1019.392
88.543541 -55.504009 -1019.884
89.035339 -55.411434 -1019.8116
89.566757 -55.326828 -1020.0001
90.086823 -55.273075 -1020.2108
90.608948 -55.196213 -1020.3356
91.109795 -55.138008 -1020.5148
91.577065 -55.089146 -1020.8156
92.080948 -55.013535 -1020.9927
92.585907 -54.940819 -1021.1797
93.084 -54.88718 -1021.5636
93.58519 -54.802811 -1021.6559
94.085022 -54.7187 -1021.8242
94.617462 -54.676228 -1022.4225
95.11631 -54.612629 -1022.5054
95.585922 -54.524815 -1022.7234
96.060379 -54.470715 -1023.0709
96.500725 -54.434891 -1023.3309
96.976219 -54.359833 -1023.7856
97.444527 -54.291332 -1024.1097
97.909615 -54.23819 -1024.3093
98.40918 -54.163834 -1024.7467
98.840546 -54.086174 -1024.824
99.330956 -54.027008 -1025.2867
99.795143 -53.973499 -1025.7621
100.26086 -53.910549 -1026.1028
100.71956 -53.859047 -1026.632
101.14597 -53.807747 -1027.038
101.58743 -53.709267 -1027.2433
102.0289 -53.670986 -1027.6991
102.45945 -53.610191 -1028.199
102.92118 -53.575695 -1028.8796
103.35654 -53.512413 -1029.1656
103.81147 -53.440636 -1029.6636
104.24493 -53.399773 -1030.0098
0 0 0
105.09108 -53.283501 -1031.1337
105.47347 -53.206696 -1031.5485
105.88244 -53.165661 -1032.1475
106.28384 -53.143349 -1032.8488
106.7 -53.08572 -1033.4923
107.0901 -52.993294 -1033.733
107.48421 -52.953411 -1034.4294
107.88389 -52.912228 -1035.2668
108.27503 -52.850529 -1035.8944
108.66831 -52.82341 -1036.7607
109.02896 -52.805599 -1037.4995
109.36008 -52.72464 -1037.9791
109.71542 -52.691002 -1038.9059
110.05881 -52.65041 -1039.6331
110.40929 -52.636543 -1040.5685
110.74194 -52.603565 -1040.8168
0 0 0
52.514599 -60.034409 -1029.1844
53.473698 -59.891731 -1028.7139
54.2971 -59.744747 -1027.5128
55.18111 -59.645195 -1026.9449
56.057674 -59.489315 -1026.2834
56.909416 -59.346954 -1025.5518
57.712559 -59.25555 -1024.8406
0 0 0
59.323792 -59.011196 -1023.9622
60.099358 -58.865227 -1022.9249
60.839241 -58.766663 -1022.4487
61.59692 -58.729462 -1022.6946
0 0 0
62.975853 -58.447571 -1021.2916
63.693153 -58.408955 -1021.6053
64.380562 -58.256195 -1020.8116
65.08625 -58.192905 -1020.8411
65.737755 -58.113468 -1020.6364
0 0 0
67.119049 -57.879375 -1019.7757
67.7855 -57.77742 -1019.6452
68.423088 -57.699532 -1019.2302
69.032021 -57.619774 -1019.2926
69.693237 -57.513157 -1019.0399
70.322441 -57.447689 -1018.9095
70.951881 -57.337936 -1018.7738
71.589188 -57.208347 -1018.4677
72.198067 -57.140759 -1018.3367
72.868462 -57.049831 -1018.2667
73.480103 -56.980953 -1018.2408
74.090958 -56.879517 -1018.0914
74.691277 -56.841213 -1018.2253
75.24482 -56.751225 -1018.1163
75.851776 -56.609322 -1017.7422
76.437294 -56.565819 -1017.8209
77.016655 -56.487926 -1017.7212
77.617622 -56.429756 -1018.0439
78.161354 -56.305172 -1017.6576
78.767044 -56.237202 -1017.8878
79.353737 -56.132332 -1017.6114
79.919357 -56.045841 -1017.645
80.484901 -56.001453 -1017.8049
81.012497 -55.919132 -1017.894
81.588882 -55.815285 -1018.0201
82.132378 -55.767921 -1018.0115
82.657555 -55.715687 -1018.0224
83.232323 -55.619324 -1018.0342
83.788811 -55.53307 -1018.1498
84.365913 -55.472599 -1018.3356
84.913849 -55.383064 -1018.2122
85.446793 -55.287262 -1018.3132
85.980347 -55.211021 -1018.341
86.47316 -55.155006 -1018.4438
87.023865 -55.079441 -1018.7353
87.549118 -55.031574 -1019.1099
88.061638 -54.934853 -1019.2028
88.59745 -54.87553 -1019.2974
89.088211 -54.786018 -1019.298
89.633293 -54.721935 -1019.4883
90.152344 -54.643841 -1019.6721
90.66552 -54.589245 -1019.8998
91.178474 -54.545712 -1020.2694
91.644508 -54.44276 -1020.3101
92.162628 -54.405914 -1020.5634
0 0 0
93.150276 -54.27182 -1021.0936
93.659561 -54.196339 -1021.2635
94.154228 -54.109489 -1021.3907
94.672127 -54.064537 -1021.799
95.175179 -54.005669 -1022.0633
95.664871 -53.92627 -1022.2785
96.138634 -53.887184 -1022.7395
96.558487 -53.794018 -1022.7957
97.042969 -53.762901 -1023.4164
97.522606 -53.677635 -1023.7655
0 0 0
98.464043 -53.573151 -1024.4049
98.918907 -53.473839 -1024.521
99.400635 -53.407295 -1024.7328
99.866302 -53.347706 -1025.1563
100.33681 -53.294071 -1025.5718
100.77863 -53.220516 -1025.8345
101.19329 -53.158192 -1026.1362
101.64738 -53.130745 -1026.7318
102.10729 -53.074707 -1027.3796
102.54269 -53.013103 -1027.8591
102.98899 -52.943615 -1028.1725
103.41708 -52.875626 -1028.3932
103.87743 -52.831779 -1028.9496
104.32392 -52.776688 -1029.5809
104.75607 -52.733192 -1030.1132
105.17163 -52.700218 -1030.7064
0 0 0
105.96677 -52.551598 -1031.7561
106.37437 -52.518593 -1032.3137
106.7648 -52.452625 -1032.655
107.18062 -52.429054 -1033.5389
107.56518 -52.351051 -1033.9767
107.96405 -52.305115 -1034.6698
108.37487 -52.278397 -1035.4984
0 0 0
109.47176 -52.107746 -1037.2957
109.82996 -52.099068 -1038.3019
110.17114 -52.028645 -1039.0469
0 0 0
110.8567 -51.986626 -1040.5594
111.17192 -51.982712 -1040.952
-42.536861 -73.487846 -1186.5179
51.754498 -59.462097 -1029.151
52.713837 -59.355339 -1028.4442
53.655315 -59.249214 -1027.6716
54.501644 -59.06974 -1026.7632
55.385731 -59.010857 -1026.772
56.23653 -58.801647 -1025.3079
57.042774 -58.743599 -1025.0293
57.858574 -58.594635 -1024.2462
58.61837 -58.468735 -1023.5248
0 0 0
60.225975 -58.272865 -1022.9914
0 0 0
0 0 0
62.365387 -57.925159 -1021.357
63.095924 -57.875568 -1021.2512
63.788963 -57.730656 -1020.4744
64.485863 -57.648106 -1020.3566
65.195015 -57.522121 -1020.0997
65.845886 -57.435955 -1019.7875
66.537476 -57.318008 -1019.4765
67.202057 -57.275349 -1019.4292
67.869461 -57.161369 -1019.1008
68.539833 -57.056309 -1018.9651
69.123505 -56.945084 -1018.532
69.775673 -56.923016 -1018.837
70.409332 -56.821358 -1018.5497
71.033722 -56.725945 -1018.3659
71.67794 -56.635166 -1018.1837
72.286697 -56.541237 -1017.9211
72.922707 -56.416889 -1017.6343
73.552345 -56.352074 -1017.767
74.182892 -56.258884 -1017.6
74.767815 -56.185158 -1017.5666
75.326622 -56.117615 -1017.4556
75.921562 -56.064671 -1017.7411
76.502922 -55.954288 -1017.5358
77.081146 -55.872837 -1017.4417
77.693016 -55.785446 -1017.3428
0 0 0
78.849434 -55.592758 -1017.3624
79.414124 -55.533005 -1017.3024
79.988487 -55.451614 -1017.2391
80.562248 -55.372913 -1017.3788
81.085739 -55.311268 -1017.417
81.651245 -55.235004 -1017.6633
82.193352 -55.135414 -1017.5432
82.733665 -55.082504 -1017.577
83.311821 -55.002094 -1017.6566
83.842979 -54.923813 -1017.7112
84.425613 -54.844742 -1017.8071
84.982437 -54.769444 -1017.9859
85.527847 -54.675915 -1018.0149
86.055191 -54.610359 -1018.1628
86.550087 -54.566563 -1018.4017
87.077377 -54.498047 -1018.5672
87.593163 -54.39529 -1018.4133
0 0 0
88.647522 -54.256813 -1018.9326
89.160706 -54.194057 -1018.899
89.695724 -54.128193 -1019.1818
90.210182 -54.058392 -1019.3772
90.723801 -53.945293 -1019.4357
91.247261 -53.910458 -1019.7081
91.705505 -53.840565 -1019.8105
92.216133 -53.7859 -1020.1043
92.71727 -53.707462 -1020.3531
93.21109 -53.630577 -1020.5173
93.725861 -53.562912 -1020.9021
94.206039 -53.506824 -1021.0175
94.736992 -53.456406 -1021.4451
95.231926 -53.375885 -1021.5777
95.711136 -53.306465 -1021.8066
96.181595 -53.230003 -1022.0036
96.623077 -53.157368 -1022.2728
97.111305 -53.126041 -1022.7922
97.568878 -53.029778 -1022.9288
98.03788 -52.982891 -1023.381
98.52755 -52.920414 -1023.7502
98.984741 -52.853031 -1023.9783
99.460823 -52.796555 -1024.4122
99.932419 -52.74485 -1024.7109
0 0 0
100.85349 -52.608246 -1025.5231
101.2616 -52.545502 -1025.7791
101.7154 -52.513756 -1026.3375
102.16817 -52.46431 -1026.9132
102.61631 -52.400848 -1027.4244
103.0659 -52.319202 -1027.7407
103.48846 -52.260101 -1027.941
103.95174 -52.197426 -1028.4979
104.39464 -52.140411 -1029.0665
104.82085 -52.093781 -1029.4425
105.24062 -52.028011 -1030.0942
105.62201 -51.992821 -1030.4801
106.03754 -51.931164 -1031.1162
106.45425 -51.899902 -1031.8281
106.86705 -51.850487 -1032.4513
107.26725 -51.7943 -1032.9153
107.64935 -51.732296 -1033.2983
108.05135 -51.680714 -1034.0336
0 0 0
108.83294 -51.554867 -1035.1841
109.19769 -51.513016 -1035.8724
109.57705 -51.504276 -1036.8973
109.94076 -51.446663 -1037.584
110.28135 -51.34993 -1037.9614
110.61563 -51.337208 -1038.8409
110.96365 -51.313324 -1039.7355
111.30278 -51.348709 -1040.496
111.61338 -51.231518 -1040.2645
49.805508 -59.321789 -1032.3917
50.973438 -59.034935 -1029.9291
51.957161 -58.846035 -1028.4453
52.927422 -58.750702 -1028.3184
53.858498 -58.620148 -1027.3772
54.634308 -58.484661 -1026.0228
55.555573 -58.379456 -1025.781
56.381557 -58.223564 -1025.024
0 0 0
58.753792 -57.876022 -1023.038
59.579243 -57.766785 -1022.7866
60.338009 -57.638859 -1022.1552
61.091732 -57.570732 -1021.9103
61.821636 -57.406647 -1020.9217
62.463028 -57.344757 -1021.064
63.204697 -57.250305 -1020.4276
0 0 0
0 0 0
65.280632 -56.954666 -1019.8651
65.942207 -56.854706 -1019.4939
66.626839 -56.752914 -1019.1711
67.290833 -56.64698 -1018.679
67.966225 -56.529213 -1018.4123
0 0 0
69.212311 -56.370361 -1018.2675
69.858749 -56.307735 -1017.9293
70.488731 -56.20528 -1017.818
71.107574 -56.121937 -1017.7787
71.755501 -56.0312 -1017.6006
72.350639 -55.943047 -1017.4076
73.01564 -55.845478 -1017.296
73.614708 -55.764477 -1017.21
74.243568 -55.677746 -1017.0984
74.840469 -55.580078 -1016.9885
75.387985 -55.542805 -1017.0478
75.987862 -55.455181 -1017.0634
76.578964 -55.356697 -1016.9732
77.148018 -55.288193 -1017.0026
77.750298 -55.191826 -1016.9571
78.299232 -55.119499 -1016.8225
78.901787 -55.061157 -1017.0294
79.476685 -54.968044 -1016.9714
80.057823 -54.856018 -1016.9156
80.631111 -54.78986 -1016.9561
81.136345 -54.727627 -1016.9457
81.700424 -54.670769 -1017.1495
82.255386 -54.57959 -1017.2705
82.800728 -54.47242 -1016.9795
83.363731 -54.417194 -1017.2473
83.904533 -54.32859 -1017.2106
84.484665 -54.26453 -1017.2649
85.034721 -54.195862 -1017.5244
85.590874 -54.108479 -1017.6602
86.117683 -54.034779 -1017.7468
86.596512 -53.96056 -1017.6751
87.12812 -53.913048 -1018.035
87.647278 -53.828697 -1018.1043
88.167297 -53.730709 -1018.1898
0 0 0
89.207008 -53.582111 -1018.2963
89.751862 -53.533741 -1018.6108
90.254951 -53.450867 -1018.7381
90.792458 -53.400043 -1019.0283
91.292389 -53.323723 -1019.3057
0 0 0
92.281395 -53.205563 -1019.9285
92.766129 -53.126774 -1020.0762
93.258095 -53.03883 -1020.1187
93.761086 -52.962109 -1020.2307
94.250038 -52.909565 -1020.4316
94.799301 -52.866829 -1021.0062
95.273659 -52.783527 -1020.936
95.773109 -52.733223 -1021.5377
96.242737 -52.664173 -1021.6072
96.683632 -52.593204 -1021.7733
97.15715 -52.543781 -1022.2951
97.637352 -52.488194 -1022.7725
98.097794 -52.387688 -1022.8875
98.581596 -52.322422 -1023.0764
99.040367 -52.289276 -1023.5529
99.520561 -52.207466 -1023.9522
99.995224 -52.134991 -1024.3232
100.44817 -52.103317 -1024.5955
100.90165 -52.020329 -1024.9087
0 0 0
101.77826 -51.914322 -1025.8641
102.22748 -51.85532 -1026.3662
102.67677 -51.814758 -1026.8887
0 0 0
103.55827 -51.666576 -1027.5131
104.0214 -51.622215 -1028.1252
104.46968 -51.569336 -1028.6207
104.887 -51.476875 -1028.8149
105.31183 -51.470081 -1029.5358
105.7 -51.38142 -1029.9089
106.11165 -51.320984 -1030.4913
106.52164 -51.298412 -1031.2218
106.92754 -51.248352 -1031.7765
107.34561 -51.208931 -1032.4252
107.73409 -51.162167 -1032.9817
0 0 0
108.53109 -51.026642 -1034.0574
108.93369 -50.996063 -1034.8168
0 0 0
109.66187 -50.885082 -1036.1299
110.02251 -50.844391 -1037.0162
110.37731 -50.818882 -1037.8459
110.73154 -50.78746 -1038.6311
111.08137 -50.733387 -1039.4114
111.41237 -50.70359 -1040.0546
0 0 0
49.035801 -58.806572 -1031.8049
50.045456 -58.629784 -1030.5951
51.156143 -58.46862 -1029.4015
52.143967 -58.308147 -1028.283
53.09988 -58.212612 -1028.103
54.016846 -58.069397 -1026.6482
54.793198 -57.910027 -1025.5901
0 0 0
56.489223 -57.714256 -1024.9567
0 0 0
0 0 0
58.873119 -57.342533 -1022.7468
59.675888 -57.203972 -1022.0679
60.429493 -57.096844 -1021.6094
61.194393 -57.029972 -1021.5171
61.929749 -56.882469 -1020.6165
62.55402 -56.812088 -1020.4169
63.279411 -56.716858 -1020.1965
63.983658 -56.591213 -1019.7286
64.664337 -56.50407 -1019.4267
65.362465 -56.419304 -1019.4144
66.022346 -56.317791 -1018.8519
66.712059 -56.221798 -1018.6644
67.376053 -56.123302 -1018.3389
68.028809 -56.038506 -1018.2593
0 0 0
69.269516 -55.841152 -1017.7314
69.93174 -55.783981 -1017.8047
70.545151 -55.702271 -1017.6077
71.186569 -55.586044 -1017.5553
71.80304 -55.495201 -1017.1027
72.416748 -55.423004 -1017.1831
73.069565 -55.313953 -1016.8557
73.68821 -55.242432 -1016.9282
74.304977 -55.14682 -1016.7487
74.912483 -55.065121 -1016.6798
75.45108 -54.989681 -1016.6933
76.052109 -54.892685 -1016.5334
76.631233 -54.830429 -1016.611
77.195465 -54.715816 -1016.2872
77.807816 -54.661953 -1016.5458
78.361061 -54.587383 -1016.3954
78.967621 -54.509434 -1016.4825
79.538574 -54.424412 -1016.5864
80.111435 -54.326942 -1016.4788
80.675415 -54.252697 -1016.3231
81.185951 -54.17067 -1016.1876
81.756691 -54.110455 -1016.5413
82.294479 -54.045155 -1016.6741
82.854462 -53.96986 -1016.7811
83.415825 -53.893593 -1016.965
83.955742 -53.822189 -1016.9095
84.532661 -53.705853 -1016.7953
85.087219 -53.626148 -1017.0046
85.643677 -53.571941 -1017.2919
86.169899 -53.494812 -1017.3715
86.65242 -53.437347 -1017.5814
87.174049 -53.358261 -1017.5112
87.700348 -53.293667 -1017.6985
88.218849 -53.201466 -1017.7743
88.764542 -53.153477 -1018.192
89.254044 -53.051029 -1018.0492
89.788857 -53.0154 -1018.2261
90.313034 -52.933624 -1018.3536
90.831863 -52.872757 -1018.707
91.338272 -52.79311 -1018.8358
91.805473 -52.705864 -1018.9073
92.315269 -52.647606 -1019.3015
92.808334 -52.592342 -1019.5413
93.300652 -52.536942 -1019.8414
93.808289 -52.454277 -1020.0153
94.304161 -52.395191 -1020.2238
94.826302 -52.328003 -1020.5161
95.334312 -52.261009 -1020.8137
95.817566 -52.195267 -1020.9053
96.30101 -52.125607 -1021.363
96.751472 -52.064869 -1021.6379
97.21006 -51.998211 -1021.7581
0 0 0
98.15448 -51.865105 -1022.4967
98.640182 -51.814835 -1022.8955
99.103539 -51.74958 -1023.2574
99.56765 -51.700069 -1023.5383
100.05378 -51.608017 -1023.8854
100.50642 -51.556782 -1024.2096
100.95184 -51.495537 -1024.5515
0 0 0
101.81951 -51.396339 -1025.285
102.27876 -51.36335 -1025.9594
102.71619 -51.277245 -1026.4021
103.17195 -51.189896 -1026.6274
0 0 0
104.07379 -51.07539 -1027.6008
104.51379 -51.017792 -1028.0403
104.9543 -50.984913 -1028.5911
105.36861 -50.897923 -1028.9243
105.75958 -50.851479 -1029.4196
106.17867 -50.800945 -1030.0621
106.57733 -50.770859 -1030.7784
106.98774 -50.684959 -1031.2563
107.40013 -50.623077 -1031.7148
107.78938 -50.583439 -1032.2063
0 0 0
108.61586 -50.521252 -1033.8882
109.00699 -50.44455 -1034.45
109.3914 -50.400974 -1035.1797
0 0 0
110.10912 -50.314465 -1036.5352
110.46578 -50.270267 -1037.3909
110.79942 -50.207794 -1037.8673
111.16394 -50.208652 -1038.9156
111.49551 -50.147388 -1039.3528
111.83748 -50.048565 -1039.639
112.13294 -50.026131 -1038.9459
47.995743 -58.338673 -1031.558
49.229507 -58.25098 -1031.3746
50.264526 -58.001915 -1029.0757
51.338974 -57.889763 -1028.6505
52.291565 -57.779072 -1027.9584
53.272964 -57.642769 -1027.0253
54.186932 -57.424076 -1025.4672
54.967838 -57.336224 -1024.814
0 0 0
0 0 0
57.405373 -56.986607 -1022.6178
58.231613 -56.911015 -1022.6522
58.987385 -56.782822 -1021.9541
59.778076 -56.682442 -1021.7343
60.537907 -56.538437 -1020.8748
61.280602 -56.443878 -1020.4845
61.993179 -56.388412 -1020.3534
62.643742 -56.301922 -1019.9653
63.377998 -56.171524 -1019.7233
64.054802 -56.07806 -1019.47
64.755066 -55.952869 -1018.8663
65.453575 -55.880798 -1018.8683
66.092323 -55.800274 -1018.5284
66.781166 -55.707535 -1018.355
67.44796 -55.555202 -1017.8331
68.119125 -55.499332 -1017.7988
68.762131 -55.408993 -1017.7057
69.347122 -55.323448 -1017.3812
70.004013 -55.220531 -1017.1873
70.62056 -55.13274 -1017.1112
71.231728 -55.0592 -1016.9717
71.865059 -54.953793 -1016.4779
72.472252 -54.881165 -1016.6691
73.13562 -54.816914 -1016.7046
73.745132 -54.734127 -1016.5137
74.364571 -54.621517 -1016.427
74.956726 -54.51506 -1016.0216
75.498276 -54.46978 -1016.2686
76.112167 -54.375832 -1016.3308
76.681244 -54.284168 -1016.2634
77.263657 -54.231434 -1016.2447
77.866798 -54.13459 -1016.2231
78.414978 -54.050243 -1016.0297
79.016228 -53.968475 -1016.062
79.593834 -53.890099 -1016.0054
80.165047 -53.799927 -1015.9997
80.71656 -53.740288 -1016.0683
81.243843 -53.663467 -1016.1766
81.809708 -53.595108 -1016.4025
0 0 0
82.892509 -53.431763 -1016.2136
83.477188 -53.366108 -1016.6534
83.995171 -53.287437 -1016.415
84.57724 -53.189541 -1016.5805
85.137306 -53.129433 -1016.8416
85.676346 -53.049175 -1016.8936
86.216072 -52.973888 -1016.8704
86.681168 -52.89954 -1016.8613
87.229218 -52.848244 -1017.3372
87.755013 -52.765862 -1017.3552
0 0 0
88.803276 -52.627094 -1017.6616
89.306381 -52.564407 -1017.7833
89.831444 -52.451626 -1017.7307
90.349075 -52.401367 -1017.9577
90.873871 -52.347797 -1018.3106
91.388756 -52.271828 -1018.5446
91.852081 -52.213879 -1018.8679
0 0 0
92.856613 -52.078037 -1019.325
