# .PCD v0.7 - Point Cloud Data file format
VERSION 0.7
FIELDS x y z
SIZE 4 4 4
TYPE F F F
COUNT 1 1 1
WIDTH 1625
HEIGHT 1
VIEWPOINT 0 0 0 1 0 0 0
POINTS 1625
DATA ascii
-71.427696 -168.88 -988.177
-71.128197 -168.601 -988.60602
-71.087601 -168.467 -989.23798
-71.251602 -168.313 -989.96997
-70.833397 -168.039 -990.26801
-70.7034 -167.83 -990.77698
-70.685501 -167.675 -991.45099
-70.6409 -167.45599 -992.10797
-70.492401 -167.25301 -992.72803
-70.414597 -167.049 -993.39502
-70.310097 -166.82001 -994.00299
-70.310204 -166.65601 -994.66998
-70.101601 -166.405 -995.138
-69.974197 -166.222 -995.67603
-69.935997 -166.05299 -996.24799
-70.091202 -165.924 -996.992
-69.824997 -165.66701 -997.49298
-69.596703 -165.37399 -998.13
-69.0811 -162.752 -1006.74
-68.486801 -162.364 -1007.02
-68.5103 -162.24001 -1007.64
-68.205101 -162.019 -1008.06
-68.733299 -161.993 -1009.04
-68.9021 -161.907 -1009.85
-68.099297 -158.627 -1020.96
-67.147499 -158.218 -1020.93
-67.110001 -158.07001 -1021.57
-66.8936 -157.772 -1022.08
-67.0084 -157.625 -1022.87
-66.462799 -157.261 -1023.2
-66.662102 -157.121 -1024.04
-66.781898 -156.98599 -1024.78
-66.680397 -156.746 -1025.35
-66.518997 -156.56799 -1025.84
-66.568298 -156.41 -1026.47
-66.204201 -156.196 -1026.8199
-66.151398 -155.942 -1027.4399
-66.464104 -155.867 -1028.37
-66.400803 -155.686 -1029.04
-66.038002 -155.37601 -1029.49
-65.9608 -155.172 -1030.15
-65.933701 -154.995 -1030.8
-65.780701 -154.78101 -1031.35
-65.1866 -154.47701 -1031.74
-54.289501 -123.924 -1129.34
-53.800499 -123.471 -1129.52
-53.7029 -123.345 -1130.02
-54.0784 -123.251 -1130.98
-54.167801 -123.083 -1131.73
-54.046398 -122.844 -1132.27
-54.0989 -122.703 -1132.97
-53.7001 -122.349 -1133.23
-74.113899 -172.032 -978.40198
-73.696198 -171.69099 -978.91498
-73.587502 -171.463 -979.66101
-72.908897 -171.035 -980.05402
-72.630898 -170.72501 -980.67902
0 0 0
-71.921097 -170.146 -981.65997
-71.834 -169.931 -982.28998
-71.936302 -169.784 -983.02502
-71.707497 -169.543 -983.48901
-71.793297 -169.41499 -984.13501
-71.593697 -169.187 -984.60101
-71.130203 -168.841 -984.94598
-71.373901 -168.729 -985.81897
-71.138 -168.459 -986.349
-70.918999 -168.243 -986.90002
-71.307602 -168.162 -987.849
-71.120201 -167.942 -988.41699
-71.540802 -167.916 -989.32397
-70.950401 -167.55099 -989.50598
-70.946404 -167.41 -990.13702
-70.810898 -167.24001 -990.66602
-70.7043 -167 -991.242
-70.724701 -166.82001 -991.935
-70.174004 -166.487 -992.276
-70.292099 -166.3 -993.06
-70.524803 -166.155 -993.87701
0 0 0
-70.401199 -165.74699 -995.05902
-70.380997 -165.591 -995.672
-70.2379 -165.37199 -996.15302
-70.302399 -165.23599 -996.83197
-69.8172 -164.927 -997.18298
-69.418198 -164.59 -997.69202
-69.495399 -162.56599 -1005.68
-69.516197 -162.341 -1006.67
-69.017899 -162.00999 -1007.06
-68.819199 -161.79401 -1007.53
-68.852997 -161.62199 -1008.16
-68.683197 -161.433 -1008.65
-68.935402 -161.342 -1009.5
-68.565903 -158.063 -1021.03
-67.486504 -157.60699 -1020.92
-67.176598 -157.341 -1021.35
-67.276703 -157.172 -1022.12
-66.900902 -156.86 -1022.56
-66.824799 -156.633 -1023.22
-66.991302 -156.52299 -1024.04
-66.806198 -156.304 -1024.5699
-66.240601 -155.961 -1024.8101
-66.602997 -155.88699 -1025.66
-66.335403 -155.692 -1026.08
-66.214203 -155.468 -1026.61
-66.221901 -155.312 -1027.27
-66.610397 -155.211 -1028.27
-66.044403 -154.864 -1028.55
-65.944298 -154.68401 -1029.1801
-65.924698 -154.451 -1029.88
-65.770401 -154.26801 -1030.4399
-65.539101 -154.037 -1030.9399
-65.758003 -153.911 -1031.84
-54.796799 -123.458 -1128.75
-54.536598 -123.176 -1129.09
-54.32 -122.973 -1129.52
0 0 0
-54.034199 -122.593 -1130.49
-54.470798 -122.506 -1131.55
-54.3074 -122.298 -1132.09
-54.583099 -122.162 -1132.9399
-54.3111 -121.911 -1133.33
-75.8069 -172.41701 -976.73999
-74.911102 -171.946 -977.13
-74.2612 -171.56 -977.56299
-73.932297 -171.33 -978.05298
-73.843201 -171.071 -978.75098
-73.2173 -170.62601 -979.14697
-72.944504 -170.38499 -979.84601
-72.714798 -170.12 -980.513
-72.307899 -169.813 -980.99799
-72.310097 -169.61 -981.70203
-71.903702 -169.27299 -982.12598
-71.555801 -169.013 -982.54901
-71.766098 -168.888 -983.30298
-71.522499 -168.677 -983.71698
-71.963997 -168.59599 -984.63599
-71.554497 -168.377 -985.021
-71.5214 -168.114 -985.70099
-71.514503 -167.944 -986.383
-71.462997 -167.73 -987.03198
-71.430199 -167.511 -987.68799
-71.413597 -167.308 -988.35199
-71.592003 -167.192 -989.086
-71.346298 -166.966 -989.5
-70.833504 -166.629 -989.76801
-71.006798 -166.532 -990.45898
-71.116501 -166.37601 -991.20801
-71.180099 -166.201 -991.90198
-70.963799 -165.955 -992.44702
-70.876801 -165.71201 -993.07898
-70.271698 -165.392 -993.34302
-70.6343 -165.34 -994.255
-70.4842 -165.147 -994.76202
-70.423599 -164.979 -995.31201
-70.289497 -164.8 -995.841
-70.354202 -164.66499 -996.48901
-70.1287 -164.412 -997.04602
-69.775803 -164.132 -997.586
-69.072899 -161.57201 -1006.07
-69.564003 -161.548 -1007.12
-69.235001 -161.28101 -1007.53
-68.976601 -161.006 -1007.95
-68.843201 -160.838 -1008.49
-69.717102 -160.91901 -1009.78
-68.560204 -157.423 -1020.8
-67.344704 -156.901 -1020.58
-67.204002 -156.66299 -1021.13
-67.040398 -156.44 -1021.74
-66.577301 -156.145 -1022.09
-66.880203 -156.019 -1023.05
-66.838997 -155.813 -1023.71
-66.431999 -155.541 -1024.08
-66.858299 -155.44099 -1025.02
-66.761497 -155.278 -1025.5699
-66.717102 -155.118 -1026.13
-66.499496 -154.895 -1026.59
-66.295502 -154.625 -1027.09
-66.3507 -154.48 -1027.83
-66.012604 -154.217 -1028.3
-65.970901 -154.036 -1028.99
-65.895798 -153.77699 -1029.61
-65.844498 -153.64301 -1030.29
-65.741699 -153.418 -1030.86
-65.345497 -153.17999 -1031.29
-55.124001 -123.019 -1127.9
0 0 0
-55.185501 -122.695 -1129.1801
-54.973801 -122.493 -1129.58
-54.7141 -122.269 -1129.9301
-54.7565 -122.085 -1130.5601
-54.675098 -121.905 -1131.2
-54.632 -121.729 -1131.85
-54.908699 -121.595 -1132.75
-55.2579 -121.449 -1133.63
-80.850899 -174.161 -976.03003
-78.370903 -172.964 -975.81799
-77.045998 -172.341 -976.21301
-75.716003 -171.683 -976.40302
-75.616997 -171.48801 -977.28101
-74.270798 -170.92101 -977.276
-74.619102 -170.83 -978.28601
-73.886703 -170.401 -978.54999
0 0 0
-73.1604 -169.74001 -979.68103
-72.695801 -169.44099 -980.185
-72.182701 -169.091 -980.64697
0 0 0
-72.4328 -168.715 -982.19098
-71.800499 -168.409 -982.42297
-71.9674 -168.243 -983.125
-72.031403 -168.07899 -983.789
-71.897499 -167.877 -984.27197
-71.672699 -167.65199 -984.77399
-71.5186 -167.433 -985.35303
-71.677101 -167.283 -986.11499
-71.613503 -167.08299 -986.81403
-71.130203 -166.76801 -987.14502
-71.569397 -166.701 -988.08099
-71.559998 -166.564 -988.71002
-71.298897 -166.35699 -989.12402
-71.0289 -166.13 -989.53802
-70.991699 -165.951 -990.10797
-70.547203 -165.67799 -990.46997
-71.4076 -165.769 -991.72302
-71.046402 -165.48 -992.16998
-71.147301 -165.332 -992.94897
-70.803001 -165.033 -993.36902
0 0 0
-70.825203 -164.71001 -994.66803
-70.593399 -164.532 -995.10901
-70.779099 -164.41299 -995.83801
-70.752701 -164.259 -996.46002
-70.293602 -163.94501 -996.841
-69.972504 -163.62601 -997.448
-69.591797 -161.049 -1006.16
-69.173302 -160.724 -1006.59
-69.066704 -160.49699 -1007.16
-69.261497 -160.40601 -1007.91
-68.894203 -160.16701 -1008.28
-69.457497 -160.13499 -1009.35
-68.459396 -156.661 -1020.48
-67.485397 -156.24699 -1020.47
-67.320702 -156.04401 -1021.01
-67.096603 -155.795 -1021.56
-66.994499 -155.59 -1022.19
-66.838097 -155.34399 -1022.77
-66.7855 -155.175 -1023.45
-66.718597 -154.94099 -1024.0699
-66.507599 -154.722 -1024.53
-66.738899 -154.64999 -1025.3101
-66.374496 -154.36301 -1025.66
-66.270401 -154.173 -1026.22
-66.271698 -154.007 -1026.86
-66.204597 -153.804 -1027.51
-66.086998 -153.614 -1028.13
-65.997101 -153.338 -1028.78
-66.006699 -153.17599 -1029.5
-65.759003 -152.951 -1029.98
-65.7192 -152.754 -1030.62
-65.487701 -152.513 -1031.13
-55.9673 -122.761 -1127.42
-55.7421 -122.514 -1127.9
0 0 0
-55.0998 -122.047 -1128.53
-55.416698 -121.941 -1129.42
-55.626499 -121.876 -1130.1899
-55.523899 -121.649 -1130.7
-55.301102 -121.442 -1131.22
-55.5135 -121.293 -1132.0601
-55.802799 -121.131 -1132.91
-55.437401 -120.835 -1133.1801
-79.694702 -173.062 -974.89203
-78.453697 -172.321 -975.58002
-77.285599 -171.73 -976.09399
-76.117104 -171.186 -976.37903
-75.811302 -170.85899 -977.13599
-74.873703 -170.345 -977.33197
-73.954102 -169.93401 -977.53497
-74.131302 -169.73599 -978.42603
-73.3414 -169.28 -978.73901
-73.415604 -169.093 -979.56403
-72.875397 -168.74899 -979.901
-72.122803 -168.328 -980.19702
-72.143898 -168.179 -980.94598
-72.835899 -168.186 -982.09698
-72.300003 -167.91499 -982.36298
-71.997101 -167.664 -982.77502
-72.271103 -167.614 -983.578
-72.506203 -167.513 -984.34998
-72.1017 -167.218 -984.71198
-71.852798 -166.995 -985.245
-72.0037 -166.88499 -986.01703
-71.819901 -166.617 -986.59003
-71.722397 -166.41299 -987.21698
-71.532997 -166.23801 -987.737
-71.358101 -166.02 -988.24402
-71.787498 -165.976 -989.15503
-71.059998 -165.595 -989.23401
-71.329201 -165.493 -990.00403
-71.385101 -165.35001 -990.71899
-71.317101 -165.157 -991.37598
-71.316399 -164.98801 -992.08002
-71.296303 -164.75101 -992.763
-71.138397 -164.493 -993.323
-71.211403 -164.36301 -994.034
-70.599503 -163.991 -994.22699
-71.275803 -164.04201 -995.289
-70.994301 -163.75 -995.70099
-70.508202 -163.51199 -996.01001
-70.252701 -163.207 -996.54797
-70.291298 -163.007 -997.39001
-69.640602 -160.37 -1005.99
-69.211197 -160.06799 -1006.42
-69.209297 -159.90601 -1007.05
-68.998199 -159.651 -1007.51
-68.9487 -159.489 -1008.09
-69.299301 -159.44299 -1009.03
-69.156998 -156.21201 -1020.73
-67.261803 -155.53 -1020.08
-66.895302 -155.27901 -1020.47
-67.122498 -155.14999 -1021.36
-67.076103 -154.94701 -1022
-66.837196 -154.702 -1022.56
-66.912102 -154.52499 -1023.34
-66.610497 -154.23399 -1023.76
-66.764603 -154.09 -1024.51
-66.594498 -153.92 -1024.98
-66.733902 -153.795 -1025.6899
-66.485397 -153.569 -1026.12
-66.4086 -153.39799 -1026.72
-66.569199 -153.218 -1027.55
-65.789597 -152.858 -1027.6801
-66.399101 -152.845 -1028.86
-66.366501 -152.64 -1029.53
-66.0821 -152.36501 -1030
-65.880203 -152.138 -1030.5
-65.8116 -151.927 -1031.14
-64.599297 -151.47 -1031.29
-56.9184 -122.591 -1126.97
0 0 0
-55.768501 -121.924 -1127.37
-56.426601 -121.849 -1128.52
0 0 0
-56.275398 -121.541 -1129.5
-56.615501 -121.484 -1130.45
-56.774101 -121.352 -1131.1899
0 0 0
-56.598801 -120.875 -1132.38
-56.501499 -120.667 -1132.9
-55.7827 -120.325 -1132.89
-80.965302 -172.748 -975.33801
-78.423103 -171.616 -975.22302
-77.132301 -170.987 -975.66699
-76.348999 -170.593 -976.24902
-75.346603 -170.08099 -976.539
-74.9216 -169.69901 -977.06
-74.529198 -169.336 -977.58002
-74.479202 -169.16 -978.31201
-73.842499 -168.836 -978.71198
-73.702103 -168.601 -979.38599
-73.248703 -168.297 -979.86102
-72.898201 -167.97701 -980.38599
0 0 0
-72.564301 -167.58099 -981.60303
-72.370399 -167.327 -982.06097
-72.7481 -167.314 -982.94
-72.207001 -167.022 -983.18103
-72.480698 -166.888 -983.99298
-72.095299 -166.62 -984.375
-72.105698 -166.431 -985.07501
-72.078598 -166.26199 -985.75897
-72.186996 -166.041 -986.52899
-72.068298 -165.855 -987.14502
-72.064499 -165.677 -987.828
-71.9748 -165.476 -988.38098
-71.681999 -165.229 -988.77899
-71.5308 -165.033 -989.26898
-71.703598 -164.901 -990.00598
-71.405403 -164.64799 -990.47601
-71.448402 -164.44299 -991.18103
-71.378899 -164.272 -991.85999
-71.291603 -164.036 -992.48199
-71.182297 -163.83299 -993.12
-71.106499 -163.595 -993.72198
-71.026703 -163.423 -994.297
-70.939102 -163.258 -994.83899
-70.745796 -163.01601 -995.33197
-70.7211 -162.869 -995.92499
-70.595901 -162.605 -996.56702
-70.152496 -162.313 -997.05402
-69.807098 -159.761 -1005.89
-69.062202 -159.36301 -1006.08
-68.919098 -159.18201 -1006.62
-68.848 -158.983 -1007.19
-68.857498 -158.798 -1007.82
-69.284203 -158.75301 -1008.77
-69.404999 -155.573 -1020.66
-67.249496 -154.85001 -1019.85
-67.196198 -154.66499 -1020.46
-67.151398 -154.502 -1021.14
-67.048203 -154.28999 -1021.78
-67.054398 -154.08701 -1022.51
-66.725998 -153.793 -1022.94
-66.671799 -153.58299 -1023.57
-66.765602 -153.437 -1024.29
-66.825996 -153.339 -1024.9399
-66.4785 -153.09 -1025.28
-66.447304 -152.90601 -1025.84
-66.3834 -152.696 -1026.49
-66.447098 -152.54601 -1027.24
-66.283302 -152.317 -1027.8199
-66.045303 -152.054 -1028.37
-66.059196 -151.85699 -1029.08
-65.973801 -151.66901 -1029.6899
-65.789902 -151.451 -1030.2
-65.6996 -151.241 -1030.8101
0 0 0
-57.3904 -122.073 -1126.74
-56.897301 -121.801 -1127.09
-56.994801 -121.652 -1127.83
-57.0228 -121.474 -1128.4399
-56.924198 -121.303 -1128.88
0 0 0
-57.173 -121.011 -1130.22
-57.125198 -120.87 -1130.83
-57.095501 -120.602 -1131.45
-56.993198 -120.427 -1132.08
-57.449501 -120.285 -1133.05
-78.181297 -170.847 -974.85602
-76.9002 -170.21201 -975.15302
-76.6287 -169.869 -976.01703
-75.754097 -169.46001 -976.40802
-75.184303 -169.11501 -976.862
-75.101799 -168.925 -977.60303
-74.781799 -168.672 -978.16302
-74.111298 -168.304 -978.54602
-73.564003 -167.963 -978.98102
0 0 0
0 0 0
-73.177696 -167.14799 -980.966
-73.190697 -167.017 -981.67603
-72.893097 -166.741 -982.12598
-72.770203 -166.58701 -982.70099
-72.366501 -166.315 -983.03601
-72.555199 -166.194 -983.78003
-72.1492 -165.875 -984.16602
-72.269798 -165.731 -984.91602
-72.621597 -165.625 -985.86499
-72.519402 -165.44099 -986.50403
-72.135696 -165.157 -986.94702
-71.777298 -164.866 -987.35699
-71.776604 -164.709 -988.005
-71.895401 -164.58 -988.69897
-71.651901 -164.377 -989.133
-71.703201 -164.18401 -989.77698
-71.474403 -163.953 -990.302
-71.229202 -163.67599 -990.82703
-71.355698 -163.535 -991.591
-71.309898 -163.33099 -992.28601
-71.305801 -163.168 -992.96301
-71.380997 -163.03101 -993.67603
-70.890099 -162.72301 -993.995
-70.911499 -162.563 -994.591
-71.029999 -162.439 -995.289
-70.797302 -162.18201 -995.75598
-70.640701 -161.95399 -996.35303
-70.627403 -161.72 -997.16602
-69.656601 -159.02299 -1005.54
-69.442101 -158.79201 -1006.11
-68.847 -158.44501 -1006.34
-69.049698 -158.36501 -1007.11
-68.814499 -158.125 -1007.54
-69.301903 -158.119 -1008.58
-69.559402 -154.98199 -1020.57
-67.9636 -154.388 -1020.12
-67.183502 -154.02901 -1020.23
-67.069901 -153.84399 -1020.85
-67.1511 -153.636 -1021.62
-67.010201 -153.41701 -1022.25
-66.518898 -153.043 -1022.57
-66.882103 -152.989 -1023.51
-66.849998 -152.819 -1024.14
-66.862396 -152.71201 -1024.75
-66.345596 -152.396 -1024.97
-66.406197 -152.25999 -1025.61
-66.293297 -152.008 -1026.2
-66.410698 -151.866 -1026.98
-66.540604 -151.735 -1027.78
-66.280197 -151.45 -1028.3101
-66.139999 -151.217 -1028.9
-65.816498 -150.96001 -1029.33
-65.992897 -150.84801 -1030.12
-65.518204 -150.586 -1030.47
-64.102997 -150.073 -1030.3
-58.1768 -121.954 -1126.0601
-59.109402 -121.872 -1127.52
-58.237 -121.472 -1127.47
0 0 0
-58.247601 -121.154 -1128.7
-58.140598 -120.988 -1129.15
-58.616199 -120.977 -1130.16
-58.220798 -120.69 -1130.36
-58.4217 -120.602 -1131.15
-58.2449 -120.361 -1131.64
-59.108002 -120.323 -1133.03
-58.145401 -119.951 -1132.97
-83.965698 -172.715 -974.77399
-78.853203 -170.463 -974.91699
-77.867699 -169.82001 -975.396
-77.0989 -169.381 -975.935
-76.820503 -169.125 -976.73401
-76.061798 -168.758 -977.07098
-75.045502 -168.256 -977.22498
-74.9217 -168.07201 -977.95099
-74.376801 -167.717 -978.41803
-73.523399 -167.274 -978.71198
-73.490402 -167.039 -979.51202
-73.507599 -166.82001 -980.27301
-73.001701 -166.407 -980.66998
-72.9189 -166.196 -981.20001
-73.027199 -166.10201 -981.95001
-72.624397 -165.817 -982.37903
-72.6138 -165.62199 -982.95001
-72.371803 -165.388 -983.38898
-72.437897 -165.17799 -984.06598
-72.4935 -165.078 -984.81299
-72.486298 -164.884 -985.54199
-72.474701 -164.742 -986.24298
-71.943901 -164.43201 -986.60699
-72.011597 -164.272 -987.29602
-71.7304 -164.03799 -987.75403
-71.881302 -163.922 -988.47101
-71.953697 -163.77699 -989.12799
-71.6185 -163.53799 -989.50403
-71.429298 -163.28101 -990.03998
-71.321198 -163.05901 -990.65997
-71.416298 -162.89 -991.43298
-71.437599 -162.74899 -992.15399
-71.276703 -162.51401 -992.73602
-71.014503 -162.258 -993.216
-71.078201 -162.136 -993.90302
-71.041397 -161.959 -994.479
-70.714302 -161.68401 -994.85901
-70.655403 -161.491 -995.43103
-70.645599 -161.298 -996.13702
-69.687599 -160.813 -996.31598
-71.275101 -159.03999 -1005.33
-69.812302 -158.422 -1005.42
-69.740898 -158.237 -1006.11
-69.009102 -157.901 -1006.24
-69.240799 -157.78799 -1007.03
-68.673897 -157.422 -1007.24
-69.1576 -157.423 -1008.25
-67.361397 -153.606 -1019.49
-67.286102 -153.39101 -1020.1
-66.990997 -153.138 -1020.57
-66.822403 -152.882 -1021.18
-67.178299 -152.77699 -1022.13
-66.603798 -152.483 -1022.44
-66.7491 -152.32001 -1023.19
-66.823997 -152.19501 -1023.89
-66.481102 -151.953 -1024.23
-66.707603 -151.819 -1024.99
-66.355003 -151.582 -1025.38
-66.152199 -151.358 -1025.91
-66.1604 -151.117 -1026.59
-66.055702 -150.909 -1027.23
-66.179398 -150.821 -1028.05
-66.242798 -150.612 -1028.76
-66.278503 -150.435 -1029.4301
-65.9841 -150.192 -1029.87
-65.828796 -150 -1030.4301
-65.185204 -149.672 -1030.76
-60.623699 -122.275 -1126.59
-58.817101 -121.519 -1125.76
-60.319901 -121.575 -1127.7
-59.478001 -121.271 -1127.72
-59.451199 -121.09 -1128.28
-60.069 -121.053 -1129.38
0 0 0
-59.873798 -120.698 -1130.37
-58.804699 -120.372 -1130.0601
-59.556301 -120.192 -1131.9301
0 0 0
-60.048302 -119.847 -1133.73
-60.5625 -119.717 -1134.66
-101.027 -180.045 -970.23102
-81.793198 -171.41299 -972.91199
-79.829697 -170.48399 -973.56
-79.500801 -169.924 -974.85498
-78.1091 -169.33099 -975.09003
-77.6091 -168.94299 -975.83801
-76.082298 -168.295 -975.86401
-75.761002 -168.02499 -976.56598
-74.867203 -167.58701 -976.84302
-74.256699 -167.196 -977.23999
-74.304001 -167.01199 -978.13202
-73.747299 -166.638 -978.659
-73.588097 -166.42599 -979.36499
-72.823097 -165.98801 -979.67102
-73.001801 -165.87199 -980.521
-73.097702 -165.73199 -981.15503
-73.099701 -165.51601 -981.82703
-72.525497 -165.082 -982.13397
-72.377403 -164.83501 -982.57202
-72.357903 -164.688 -983.15302
-72.270203 -164.459 -983.729
-72.165298 -164.29601 -984.34399
-72.661697 -164.205 -985.367
-72.469498 -164.01199 -985.95502
-72.116096 -163.80299 -986.448
-72.076103 -163.672 -987.13501
-72.587196 -163.66 -988.12903
-71.705299 -163.201 -988.14398
-71.915802 -163.121 -988.89801
-71.631203 -162.869 -989.30402
-71.394203 -162.63699 -989.81201
-71.573502 -162.515 -990.62
-71.138901 -162.194 -991.01703
-71.0485 -161.976 -991.685
-71.070602 -161.80901 -992.37299
-71.1633 -161.649 -993.06598
-71.107803 -161.42799 -993.66302
-70.931602 -161.27 -994.172
-70.806503 -161.076 -994.70099
-70.925797 -160.942 -995.43201
-70.257896 -160.55299 -995.66498
-70.178497 -160.36099 -996.43799
-70.602203 -158.22501 -1004.67
-69.710899 -157.75101 -1005.15
-69.3284 -157.433 -1005.59
-68.947403 -157.16701 -1005.96
-69.2285 -157.092 -1006.78
-69.061203 -156.89101 -1007.3
-69.181602 -156.774 -1008.04
-70.9935 -154.05901 -1021.07
-67.395699 -152.964 -1019.29
-67.280701 -152.755 -1019.86
-67.226303 -152.584 -1020.55
-67.140099 -152.319 -1021.18
-66.650101 -152.002 -1021.54
-67.0037 -151.93201 -1022.49
-66.9263 -151.741 -1023.1
-66.8358 -151.532 -1023.67
-66.896896 -151.37801 -1024.3199
-66.5989 -151.13699 -1024.7
-66.813103 -151.069 -1025.48
-66.276802 -150.737 -1025.75
-66.048302 -150.468 -1026.29
-65.815002 -150.243 -1026.85
-65.8918 -150.05099 -1027.58
-66.138802 -149.968 -1028.48
-66.072304 -149.75101 -1029.0699
-65.886398 -149.54601 -1029.61
-65.668602 -149.33 -1030.0699
-65.315498 -149.03799 -1030.58
-61.223301 -121.772 -1126.1801
-60.211498 -121.304 -1126.09
-60.344398 -121.103 -1126.78
-61.042702 -121.082 -1128.11
-60.941299 -120.903 -1128.58
-60.789902 -120.707 -1129.0699
-60.922901 -120.6 -1129.8
-61.000999 -120.451 -1130.38
-60.886299 -120.237 -1130.83
-60.3503 -119.985 -1131.01
-61.332901 -120.039 -1132.54
0 0 0
-62.495998 -119.799 -1134.73
-61.079399 -119.29 -1134.21
-99.997597 -179.254 -968.466
-101.667 -179.758 -970.38098
-100.083 -178.936 -970.23602
-81.039902 -170.32001 -974.00098
-79.9338 -169.47301 -974.59698
-79.261703 -169.069 -975.349
-78.544899 -168.59 -976.15601
-76.572098 -167.84399 -975.90802
-75.719002 -167.35699 -976.28497
-75.1147 -167.009 -976.78497
-74.631897 -166.67999 -977.284
-74.246498 -166.34599 -977.88702
-73.750504 -166.017 -978.43402
-73.612099 -165.722 -979.16998
-72.836601 -165.33701 -979.40997
-73.221199 -165.362 -980.42102
-72.879303 -165.09599 -980.83197
-73.094101 -164.981 -981.71198
-72.334396 -164.58501 -981.91199
-72.204697 -164.353 -982.36102
-72.078598 -164.147 -982.888
-72.2761 -163.996 -983.66498
-72.254402 -163.74699 -984.26703
-72.178802 -163.50101 -984.89203
-72.312897 -163.38699 -985.60101
-72.335899 -163.255 -986.37299
-72.107803 -163.01801 -986.91699
-72.456802 -162.911 -987.80798
-71.990997 -162.661 -988.125
-71.721397 -162.431 -988.53101
-71.541702 -162.19099 -989.03302
-71.689796 -162.07401 -989.79102
-71.6054 -161.845 -990.40802
-71.3265 -161.588 -990.91602
-71.145203 -161.358 -991.50897
-71.1185 -161.164 -992.18103
-71.342697 -161.021 -992.99402
-70.956703 -160.784 -993.35699
-70.987198 -160.645 -993.98499
-71.048798 -160.45599 -994.625
-71.012802 -160.34 -995.24902
-70.318497 -159.912 -995.46198
-70.443398 -159.776 -996.41998
-69.974701 -157.19901 -1005.11
-69.519096 -156.90199 -1005.53
-69.015701 -156.584 -1005.81
-69.157303 -156.423 -1006.52
-69.042 -156.256 -1007.06
-69.261902 -156.147 -1007.87
-67.797897 -152.42101 -1019.38
-67.474998 -152.147 -1019.81
-67.095001 -151.867 -1020.25
-66.946098 -151.623 -1020.85
-66.938904 -151.474 -1021.54
-66.8321 -151.252 -1022.14
-66.864098 -151.07401 -1022.82
-66.702797 -150.871 -1023.35
-66.495499 -150.63499 -1023.81
-66.660004 -150.535 -1024.53
-66.506401 -150.334 -1025.05
-66.350098 -150.114 -1025.5601
-66.463898 -149.94501 -1026.37
-66.261299 -149.715 -1026.9399
-66.0411 -149.46001 -1027.48
-65.939796 -149.26801 -1028.09
-66.150002 -149.145 -1028.92
-65.749001 -148.87399 -1029.26
-65.841797 -148.733 -1029.96
-65.640503 -148.508 -1030.5699
-62.5294 -121.531 -1126.38
-61.872101 -121.137 -1126.53
-62.6367 -121.074 -1127.87
-62.3853 -120.865 -1128.33
-62.163799 -120.669 -1128.72
-62.276798 -120.537 -1129.42
0 0 0
-62.146599 -120.159 -1130.42
-63.0322 -120.233 -1131.77
0 0 0
-62.280998 -119.734 -1132.3199
-62.4543 -119.554 -1133.2
-63.0658 -119.432 -1134.3101
-101.669 -179.01401 -969.30103
-100.316 -178.26199 -970.17999
-85.686996 -171.33099 -974.52698
-82.373703 -169.974 -974.15802
-80.515198 -169.08501 -974.336
-80.190201 -168.65601 -975.52899
-77.6633 -167.70399 -975.19299
-76.946999 -167.282 -975.89001
-75.758102 -166.717 -976.04901
-74.721901 -166.25301 -976.27802
-74.710297 -166.05701 -977.099
-73.995201 -165.64799 -977.48199
-73.712898 -165.34399 -978.185
-73.317299 -165.017 -978.78699
-73.071198 -164.755 -979.37402
-72.822601 -164.549 -979.82501
-73.137802 -164.481 -980.77197
-72.743103 -164.217 -981.26801
-72.488701 -163.995 -981.72302
-72.436302 -163.868 -982.34003
-72.491699 -163.729 -983.01599
-72.395302 -163.50101 -983.63898
-72.202003 -163.21899 -984.13702
-72.3125 -163.108 -984.84998
-72.1119 -162.808 -985.354
-72.336502 -162.655 -986.16101
-72.108398 -162.37399 -986.73901
-72.275299 -162.24899 -987.47803
-71.832001 -161.916 -987.80103
-71.754204 -161.767 -988.33899
-71.801903 -161.59599 -989.00201
-71.895302 -161.409 -989.68201
-71.408096 -161.131 -990.06097
-71.552696 -160.974 -990.86102
-71.253502 -160.701 -991.35498
0 0 0
0 0 0
-70.951401 -160.106 -993.12701
-71.100304 -160.00999 -993.85199
-71.1306 -159.871 -994.47601
-70.791801 -159.59 -994.87799
-70.714699 -159.34801 -995.53497
-70.502998 -159.082 -996.20801
-38.2943 -147.153 -992.19098
-69.558296 -156.44901 -1004.63
-69.390297 -156.203 -1005.21
-69.245796 -155.978 -1005.74
-69.197098 -155.80499 -1006.34
-69.2789 -155.64799 -1007
-69.187302 -155.455 -1007.58
-67.6679 -151.688 -1019.03
-67.191498 -151.423 -1019.36
-67.100304 -151.22 -1019.98
-66.934898 -151.032 -1020.61
-66.529198 -150.69901 -1021.01
-66.730499 -150.56 -1021.83
-66.5746 -150.37 -1022.41
-66.5896 -150.153 -1023.04
-66.833702 -150.07401 -1023.81
-66.357002 -149.836 -1024.08
-66.5783 -149.68401 -1024.85
-66.331703 -149.45599 -1025.3199
-66.191299 -149.243 -1025.92
-66.198502 -149.07899 -1026.65
-66.208099 -148.867 -1027.36
-65.829399 -148.56599 -1027.75
-65.992699 -148.41901 -1028.54
-66.020897 -148.28799 -1029.1899
-66.1287 -148.14301 -1029.92
-65.389198 -147.793 -1030.08
-61.8372 -146.711 -1028.54
-64.292297 -121.322 -1126.97
-63.283501 -120.933 -1126.76
-63.256001 -120.733 -1127.4301
-63.934799 -120.669 -1128.63
-64.412498 -120.56 -1129.65
-64.789703 -120.525 -1130.6
0 0 0
-62.971401 -119.941 -1130.22
-63.432701 -119.861 -1131.2
0 0 0
0 0 0
-63.267601 -119.252 -1132.9301
-63.840302 -119.112 -1134.11
-63.245701 -118.735 -1134.23
-100.691 -178.259 -968.47101
-101.945 -178.258 -969.91302
-99.945702 -177.558 -969.69
-86.005798 -170.75999 -974.29602
-81.671799 -168.785 -974.62299
-79.345596 -167.78799 -974.61499
-78.480598 -167.269 -975.49902
-77.240997 -166.69701 -975.836
-75.816704 -166.056 -975.86603
-75.030502 -165.657 -976.24402
-74.763496 -165.40401 -976.88397
-74.080299 -165.00301 -977.27502
-74.402802 -164.854 -978.41498
-73.825798 -164.55099 -978.92401
-73.057404 -164.231 -979.14899
0 0 0
-73.183899 -163.76199 -980.60901
-72.724403 -163.478 -980.97803
-72.409103 -163.22099 -981.39502
-72.855003 -163.231 -982.302
-72.107803 -162.80901 -982.44299
-72.445999 -162.80901 -983.36401
-72.118301 -162.55701 -983.84698
-72.220497 -162.44299 -984.57098
-72.4207 -162.259 -985.36603
-72.363503 -161.964 -986.02197
-71.922699 -161.69701 -986.39203
-72.190498 -161.52 -987.24799
-71.5765 -161.17101 -987.42401
-71.348801 -160.908 -987.862
-71.1576 -160.63499 -988.31702
-71.474403 -160.547 -989.14099
-71.707199 -160.492 -990.00897
-71.667198 -160.328 -990.71399
-71.287102 -160.052 -991.172
-71.075401 -159.821 -991.71503
0 0 0
-71.184998 -159.491 -993.04401
-71.437401 -159.39999 -993.82202
-70.675598 -159.037 -993.92798
-70.753502 -158.90401 -994.61401
-70.6744 -158.703 -995.27802
-70.313499 -158.39799 -995.85199
-69.794296 -155.814 -1004.52
-69.011497 -155.40199 -1004.72
-69.269997 -155.306 -1005.53
-69.076401 -155.106 -1006
-68.973602 -154.89799 -1006.57
-69.012497 -154.75999 -1007.25
-67.431297 -150.99899 -1018.61
-67.305199 -150.808 -1019.22
-67.348801 -150.618 -1019.91
-67.266899 -150.41901 -1020.55
-66.868599 -150.127 -1021
-66.920998 -149.918 -1021.73
-66.982803 -149.783 -1022.44
-66.870499 -149.61301 -1023
-66.846603 -149.44 -1023.57
-66.849998 -149.261 -1024.1899
-66.727501 -149.06 -1024.6801
-66.688499 -148.894 -1025.3101
-66.656403 -148.69501 -1025.99
-66.148598 -148.364 -1026.33
-66.200798 -148.16299 -1027.0699
-66.439697 -148.09399 -1027.92
-66.281097 -147.843 -1028.47
-66.104301 -147.661 -1028.98
-66.368202 -147.567 -1029.83
-65.695 -147.22099 -1029.98
-65.044197 -120.97 -1126.61
-65.057098 -120.751 -1127.3199
0 0 0
-64.905197 -120.295 -1128.46
-65.230003 -120.262 -1129.39
-65.502701 -120.122 -1130.24
-65.400597 -119.978 -1130.66
-64.742599 -119.697 -1130.6899
-66.0187 -119.81 -1132.3199
-65.6045 -119.538 -1132.52
-65.279198 -119.323 -1132.98
-65.266602 -119.087 -1133.62
-65.889603 -118.97 -1134.9301
-64.754501 -118.461 -1134.54
-101.086 -177.821 -967.72699
-101.3 -177.799 -968.58899
-101.534 -177.595 -969.52502
-100.534 -176.95599 -969.68298
-86.753098 -170.386 -974.16101
-82.064598 -168.62199 -972.65302
-82.727402 -168.39999 -974.93402
-79.328102 -167.166 -974.224
-77.790604 -166.36501 -974.71503
-77.264999 -166.08501 -975.62402
-76.188499 -165.532 -975.896
-75.828697 -165.22301 -976.539
-74.865799 -164.739 -976.70898
-74.384598 -164.423 -977.27197
-73.846298 -164.108 -977.78601
-73.361298 -163.813 -978.341
-73.117203 -163.55 -978.935
-73.039703 -163.287 -979.62
-73.164101 -163.08099 -980.401
-72.595901 -162.70599 -980.65601
-72.4944 -162.52699 -981.19501
-72.655197 -162.422 -981.91602
-72.798203 -162.327 -982.64398
-72.691101 -162.159 -983.25702
-72.235802 -161.83099 -983.64001
-72.277 -161.67799 -984.38098
-72.213303 -161.47099 -985.02698
-71.830299 -161.18201 -985.44501
-72.2491 -161.054 -986.39697
-71.8134 -160.748 -986.78601
-71.585403 -160.44501 -987.25403
-71.469803 -160.252 -987.758
-71.3657 -160.064 -988.27197
-71.757698 -160.02 -989.10101
-71.558601 -159.786 -989.63202
-71.4729 -159.59599 -990.30499
-71.507599 -159.44299 -991.078
0 0 0
-71.333099 -159.041 -992.31097
-71.257401 -158.87601 -992.88702
-70.805702 -158.61 -993.21698
-70.867203 -158.42 -993.84601
-70.539497 -158.192 -994.25897
-70.708801 -158.078 -995.05902
-70.264503 -157.73 -995.625
-39.079201 -146.04601 -992.23499
-69.966599 -155.21899 -1004.44
-69.316299 -154.862 -1004.71
-69.081001 -154.646 -1005.2
-69.288902 -154.51601 -1005.94
-69.108498 -154.30299 -1006.42
-69.1436 -154.146 -1007.11
-68.091599 -150.573 -1018.83
-67.596397 -150.22501 -1019.17
-67.053101 -149.908 -1019.43
-67.303398 -149.784 -1020.3
-67.072899 -149.539 -1020.86
-66.869102 -149.29201 -1021.43
-67.1008 -149.161 -1022.23
-67.138702 -149.006 -1022.89
-67.077904 -148.85001 -1023.45
-66.93 -148.636 -1023.92
-66.905197 -148.45399 -1024.52
-66.751602 -148.23199 -1025.04
-66.720299 -148.035 -1025.72
-66.588699 -147.832 -1026.35
-66.468903 -147.651 -1026.98
-66.332497 -147.424 -1027.53
-66.270897 -147.188 -1028.13
-66.1549 -147.009 -1028.6801
-66.442001 -146.91499 -1029.51
-66.018402 -146.58501 -1029.87
-65.374298 -146.248 -1030.14
-66.626801 -120.776 -1126.96
-66.246498 -120.282 -1128.04
-66.700798 -120.205 -1129.13
0 0 0
-66.828796 -119.945 -1130.4301
-67.386002 -119.863 -1131.37
-66.8909 -119.646 -1131.48
-66.773499 -119.46 -1131.99
-67.365997 -119.435 -1133.21
-67.813004 -119.287 -1134.17
-66.511703 -118.826 -1133.8101
-66.788803 -118.688 -1134.74
-102.674 -177.388 -969.08698
-101.5 -176.76801 -969.19702
-102.193 -176.81599 -970.48798
-88.741798 -170.692 -972.659
-85.940697 -169.41499 -972.849
-85.525902 -169.035 -974.29401
-82.508499 -167.821 -974.34698
-79.237099 -166.49699 -973.91199
-78.243896 -165.873 -974.73102
-77.004402 -165.298 -975.13702
-76.132896 -164.864 -975.59601
-75.310898 -164.367 -975.96503
-74.786102 -163.993 -976.42401
-74.693398 -163.78 -977.185
-74.218803 -163.498 -977.71997
-73.764 -163.214 -978.29401
-73.131699 -162.812 -978.67798
0 0 0
-72.747498 -162.332 -979.93701
-72.866898 -162.17999 -980.659
-72.918098 -162.041 -981.27002
-72.5243 -161.731 -981.59601
-72.802696 -161.658 -982.40601
-72.4104 -161.38499 -982.81702
-72.186401 -161.166 -983.388
-72.335701 -161.009 -984.177
-72.1623 -160.78999 -984.78198
-72.295502 -160.60699 -985.57397
-71.988998 -160.33099 -986.03003
-71.870399 -160.106 -986.62799
-71.7444 -159.93201 -987.16199
-71.650902 -159.743 -987.70001
-71.587097 -159.63699 -988.26501
-71.106499 -159.26199 -988.49799
-70.884903 -158.95799 -989.01099
-71.736801 -158.953 -990.245
-71.771004 -158.745 -990.91901
-71.7453 -158.549 -991.64899
0 0 0
-71.208603 -158.201 -992.58698
-71.242897 -158.041 -993.23999
-71.183296 -157.855 -993.83698
-70.864601 -157.64799 -994.26202
-70.819702 -157.397 -994.92999
-70.120697 -157.047 -995.28497
-39.422401 -145.55499 -992.40698
-69.579201 -154.45399 -1003.94
-69.584198 -154.25 -1004.66
-69.453102 -154.08299 -1005.21
-69.049698 -153.778 -1005.51
-69.302101 -153.686 -1006.32
-69.433403 -153.58 -1007.08
-68.578903 -149.993 -1018.87
-67.847801 -149.70799 -1019.06
-67.792999 -149.483 -1019.68
-67.448196 -149.164 -1020.14
-67.411797 -148.944 -1020.81
-67.365997 -148.783 -1021.46
-67.415199 -148.597 -1022.14
-67.392799 -148.425 -1022.74
-67.258698 -148.24899 -1023.27
-67.130898 -148.02299 -1023.76
-67.0494 -147.87 -1024.3199
-67.0242 -147.67599 -1024.91
-66.725197 -147.36 -1025.37
-66.819504 -147.237 -1026.16
-66.815002 -147.05499 -1026.84
-66.729897 -146.86 -1027.48
-66.755997 -146.64999 -1028.14
-66.723503 -146.506 -1028.75
-66.809196 -146.349 -1029.45
-66.402496 -146.071 -1029.8199
-66.030602 -145.728 -1030.24
0 0 0
-68.108902 -120.576 -1127.27
-67.155403 -120.194 -1127.14
0 0 0
-67.194504 -119.81 -1128.54
-68.595299 -119.908 -1130.34
-69.119301 -119.872 -1131.34
-69.3918 -119.803 -1132.14
-69.199402 -119.625 -1132.52
0 0 0
0 0 0
-68.973503 -118.998 -1134.14
-68.454697 -118.734 -1134.5
-68.813797 -118.598 -1135.42
-68.913498 -118.406 -1136.17
-102.075 -176.59 -968.53198
-101.243 -176.125 -968.745
-102.196 -176.20599 -970.164
-81.287598 -166.739 -973.17297
-79.948502 -166.058 -974.08002
-78.314903 -165.263 -974.53302
-76.8908 -164.59599 -974.82703
-76.249702 -164.214 -975.45697
-75.613197 -163.759 -975.96698
-75.511002 -163.478 -976.64801
-74.518898 -163.04201 -976.76501
-74.084198 -162.77 -977.40503
-73.4655 -162.437 -977.836
-73.494904 -162.258 -978.68799
-73.449799 -162.04401 -979.43201
-73.2752 -161.826 -980.05701
-72.8022 -161.524 -980.39801
-72.602501 -161.30499 -980.90302
-72.384697 -161.03 -981.31702
-72.7043 -160.97 -982.10101
-72.522797 -160.756 -982.65302
-72.163498 -160.474 -983.12701
-72.140602 -160.241 -983.82001
-71.840401 -160.002 -984.33197
-72.379898 -159.966 -985.38397
-72.028503 -159.705 -985.828
-71.612503 -159.448 -986.22101
-72.008499 -159.405 -987.12903
-71.461502 -159.05099 -987.35999
-71.606102 -158.957 -988.052
-71.908096 -158.804 -988.87299
-71.503403 -158.412 -989.258
-71.807503 -158.3 -990.13702
-71.407097 -157.983 -990.49902
-71.017502 -157.70799 -990.88898
-71.498001 -157.74001 -991.867
-71.458099 -157.597 -992.53003
-71.435097 -157.44099 -993.16302
-70.902199 -157.127 -993.42499
-70.952904 -156.968 -994.07599
-70.961197 -156.767 -994.77502
-70.606003 -156.504 -995.38202
-39.995701 -145.05701 -992.55902
-72.374802 -154.714 -1004.5
-69.751198 -153.84599 -1003.79
-69.408096 -153.55701 -1004.29
-69.423798 -153.44299 -1004.92
-69.404999 -153.22301 -1005.52
-69.186203 -153.01401 -1005.96
-69.559303 -152.929 -1006.9
-69.782204 -149.64101 -1019.31
-68.038399 -149.04601 -1018.82
-67.738197 -148.785 -1019.29
-67.823303 -148.60201 -1020.06
-67.524498 -148.327 -1020.54
-67.896698 -148.282 -1021.5
-67.389198 -147.953 -1021.79
-67.460503 -147.78 -1022.45
-67.3339 -147.563 -1022.96
-67.5336 -147.45799 -1023.68
-67.363197 -147.272 -1024.15
-67.236801 -147.05499 -1024.7
-67.304604 -146.86 -1025.4399
-67.1465 -146.696 -1026.01
-67.057999 -146.47501 -1026.63
-67.029503 -146.297 -1027.3101
-66.800003 -146.054 -1027.8
-66.645103 -145.812 -1028.33
-67.005402 -145.76401 -1029.21
-66.797699 -145.489 -1029.75
-66.133301 -145.13499 -1029.97
-69.493599 -120.538 -1126.76
-69.368103 -120.111 -1128
-69.978104 -120.017 -1129.17
0 0 0
-69.771103 -119.66 -1130.35
-70.550003 -119.673 -1131.5601
-70.643204 -119.521 -1132.17
-69.9683 -119.301 -1132.3
-70.536697 -119.255 -1133.29
-70.387497 -119.047 -1133.78
-71.352402 -119.007 -1135.17
-71.003998 -118.749 -1135.55
-70.179001 -118.341 -1135.54
-70.731903 -118.154 -1136.64
-102.029 -175.709 -968.11902
-101.204 -175.42999 -968.44897
-102.49 -175.52901 -970.08398
-80.047699 -165.32401 -973.86499
-79.319199 -164.89799 -974.87903
-77.694 -164.19501 -975.07898
-76.597397 -163.629 -975.44
-75.841202 -163.20399 -975.93597
-75.061401 -162.795 -976.11902
-74.461197 -162.507 -976.50897
-74.459503 -162.285 -977.40997
-73.7798 -161.90601 -977.85498
0 0 0
-73.250099 -161.33099 -979.10699
-73.098701 -161.103 -979.70697
-72.9216 -160.88499 -980.28802
-72.825203 -160.72099 -980.86902
-72.477097 -160.435 -981.19202
-72.418602 -160.23 -981.71503
-72.178001 -159.976 -982.203
-72.663002 -159.882 -983.21997
-72.423798 -159.653 -983.76001
-72.211304 -159.418 -984.33899
-72.123199 -159.237 -984.97699
-71.892601 -158.98399 -985.508
-72.190201 -158.91901 -986.37
-71.910202 -158.718 -986.84399
-71.679199 -158.494 -987.289
-71.605698 -158.259 -987.849
-71.1894 -157.911 -988.198
-71.094101 -157.735 -988.73401
-71.460899 -157.74001 -989.74597
-71.5242 -157.56799 -990.45898
-71.425102 -157.345 -991.01099
0 0 0
-71.442703 -156.985 -992.30902
-71.383904 -156.765 -992.883
-71.058296 -156.506 -993.29102
-70.985397 -156.321 -993.85101
-71.064003 -156.211 -994.59998
-70.474899 -155.839 -995.03601
-70.424698 -153.364 -1004.01
-70.092201 -153.10699 -1004.49
-69.937698 -152.892 -1004.99
-69.412201 -152.59801 -1005.23
-69.197403 -152.369 -1005.69
-69.461098 -152.252 -1006.52
-71.716499 -152.65601 -1008.97
-68.370003 -148.494 -1018.7
-68.028099 -148.174 -1019.12
-67.882599 -147.991 -1019.74
-67.862801 -147.81599 -1020.43
-68.2155 -147.698 -1021.34
-67.836899 -147.446 -1021.7
-67.598396 -147.19099 -1022.2
-67.637299 -147.045 -1022.83
-67.947899 -146.964 -1023.58
-67.574898 -146.742 -1023.91
-67.648399 -146.563 -1024.64
-67.290398 -146.285 -1025.0601
-67.310204 -146.116 -1025.77
-67.734703 -146.00301 -1026.76
-67.5177 -145.761 -1027.25
-67.230499 -145.472 -1027.66
-67.277199 -145.349 -1028.37
-67.367203 -145.23399 -1029.1
-67.167702 -144.909 -1029.59
-66.2864 -144.549 -1029.6801
-72.6101 -120.893 -1127.77
-71.150299 -120.364 -1127.17
-71.029297 -120.152 -1127.73
-70.442299 -119.826 -1127.9399
-71.163597 -119.767 -1129.22
-71.855499 -119.583 -1131.17
-71.605003 -119.349 -1131.4301
-71.615501 -119.209 -1131.97
-72.065598 -119.172 -1132.9301
-72.297997 -119.029 -1133.6899
-71.510902 -118.681 -1133.61
-72.388901 -118.749 -1135.04
0 0 0
-72.185501 -118.215 -1136.24
-71.512497 -117.796 -1136.34
-103.287 -175.491 -968.758
-102.12 -175.07201 -968.73999
-101.233 -174.478 -968.95697
-95.150497 -170.70799 -974.66901
-90.043602 -168.57201 -973.42999
-78.204597 -163.924 -973.90997
-77.889801 -163.55099 -974.98297
-75.532799 -162.672 -974.51501
-75.931099 -162.58701 -975.71002
-74.974503 -162.24899 -975.828
-74.645599 -162.008 -976.44397
-74.388397 -161.63699 -977.17999
-73.807404 -161.254 -977.646
0 0 0
-73.054298 -160.60201 -978.716
-73.1119 -160.42599 -979.47498
-73.071999 -160.258 -980.14801
-72.624001 -159.966 -980.44397
-72.691902 -159.8 -981.08899
-72.281502 -159.44099 -981.39502
-72.3339 -159.241 -982.07202
-72.411499 -159.099 -982.78302
-72.4702 -159.00101 -983.50201
-72.300598 -158.811 -984.151
-72.142197 -158.571 -984.742
-71.910599 -158.37 -985.28302
-72.131699 -158.239 -986.06201
-71.822601 -157.98399 -986.47198
-71.863602 -157.94299 -987.16901
-71.483299 -157.662 -987.60498
-71.1334 -157.44099 -987.995
-71.452499 -157.386 -988.81897
-71.734596 -157.28799 -989.71002
-71.301804 -156.944 -990.19598
-71.408699 -156.724 -990.80603
-71.120201 -156.40401 -991.12598
-71.705704 -156.328 -992.23798
-71.511002 -156.095 -992.70398
-71.1726 -155.853 -993.05902
-71.149002 -155.758 -993.68298
-71.208504 -155.58501 -994.40601
-70.716797 -155.214 -994.90698
-70.266197 -152.67599 -1003.57
-70.307701 -152.47099 -1004.29
-70.134102 -152.297 -1004.78
-69.758301 -152.037 -1005.14
-69.688103 -151.82201 -1005.66
-69.774101 -151.679 -1006.39
-70.2537 -151.60201 -1007.49
-68.971397 -148.035 -1018.71
-68.467499 -147.686 -1019.04
-68.3433 -147.44901 -1019.66
-68.728798 -147.373 -1020.63
-68.119301 -147.08 -1020.88
-68.576698 -147.017 -1021.86
-67.795303 -146.661 -1021.94
-67.813202 -146.496 -1022.54
-68.045502 -146.42599 -1023.28
-68.014999 -146.203 -1023.83
-68.191002 -146.08299 -1024.63
-67.642403 -145.758 -1024.88
-67.875099 -145.589 -1025.74
-67.556 -145.368 -1026.21
-67.693901 -145.144 -1026.9399
-67.704803 -145.024 -1027.59
-67.536903 -144.811 -1028.13
-67.3741 -144.58099 -1028.6899
-67.243401 -144.381 -1029.26
-67.301201 -144.245 -1029.97
-73.514503 -120.332 -1128.0601
-73.9142 -120.208 -1129.1
-73.239197 -119.822 -1129.11
-73.357697 -119.687 -1129.95
-72.517303 -119.347 -1129.97
-73.783897 -119.433 -1131.71
-73.738701 -119.29 -1132.2
-73.216202 -119.021 -1132.3199
-73.729103 -119.016 -1133.33
-74.312698 -118.927 -1134.3199
-73.657303 -118.673 -1134.41
-74.067001 -118.508 -1135.4
-74.262497 -118.415 -1136.27
-73.885902 -118.067 -1136.67
-73.033798 -117.605 -1136.58
-102.004 -174.43201 -967.65399
-102.959 -174.63 -968.94202
-101.552 -173.924 -968.90399
-101.571 -173.715 -969.763
-93.147903 -169.34399 -972.60699
-80.145699 -163.782 -974.91498
-77.083702 -162.705 -974.18103
-76.402397 -162.332 -974.83398
-75.360001 -161.96201 -975.10797
-75.489899 -161.83501 -975.93597
-75.046501 -161.40401 -976.49298
-73.982697 -160.86099 -976.67798
-74.041702 -160.65601 -977.55298
-73.332802 -160.259 -977.90802
-72.943398 -159.91499 -978.40002
-73.403198 -159.89 -979.44299
-73.087502 -159.612 -979.87903
-73.046204 -159.40199 -980.53003
-72.5839 -159.04601 -980.80701
-72.762001 -158.88499 -981.495
-72.487999 -158.64 -981.92999
-72.948997 -158.629 -982.86298
-72.879898 -158.493 -983.47998
-72.629402 -158.295 -984.10303
-72.367401 -158.01199 -984.61102
-72.1269 -157.799 -985.185
-72.416603 -157.707 -985.99799
-72.325302 -157.49699 -986.54199
-71.858597 -157.256 -986.85797
-71.770599 -157.11 -987.45697
-71.614899 -156.938 -987.98999
-71.551498 -156.83 -988.617
-71.902603 -156.634 -989.51801
-71.414398 -156.239 -989.95001
0 0 0
-71.626404 -155.931 -991.27399
-71.4132 -155.646 -991.80499
-71.545403 -155.536 -992.45801
-71.620499 -155.37199 -993.03699
-71.525803 -155.237 -993.62402
-71.198898 -154.95799 -994.10303
-70.930199 -154.657 -994.72803
-70.497704 -152.07899 -1003.37
-70.415497 -151.90199 -1004.01
-70.235397 -151.68201 -1004.5
-70.001099 -151.494 -1004.97
-70.006699 -151.314 -1005.57
-69.705902 -151.032 -1005.98
-70.264503 -151.022 -1007.09
-69.855797 -147.582 -1018.89
-69.2444 -147.242 -1019.15
-68.9842 -146.961 -1019.64
-68.6465 -146.74899 -1020.14
-68.561203 -146.515 -1020.74
-68.4189 -146.325 -1021.26
-68.739304 -146.237 -1022.13
-68.588097 -146.064 -1022.61
-68.329399 -145.811 -1023
-68.1213 -145.599 -1023.44
-68.848297 -145.63 -1024.64
-68.629303 -145.36301 -1025.12
-68.465599 -145.161 -1025.73
-68.400299 -144.96899 -1026.38
-68.459801 -144.79601 -1027.0699
-68.418701 -144.612 -1027.66
-68.254501 -144.42 -1028.21
-68.196297 -144.22099 -1028.78
-68.002098 -144.00999 -1029.3199
-67.515701 -143.774 -1029.61
-75.520699 -120.077 -1129.33
-74.558998 -119.649 -1129.26
-75.877998 -119.697 -1130.99
-74.8564 -119.379 -1130.91
-75.727798 -119.34 -1132.24
-75.388397 -119.106 -1132.53
-75.2491 -118.913 -1133.03
-76.437401 -119.021 -1134.52
-74.7724 -118.567 -1133.73
-76.539398 -118.76 -1135.78
-75.514297 -118.347 -1135.53
-75.878799 -118.027 -1137.23
-76.4188 -117.727 -1138.23
-102.095 -173.783 -967.32501
-102.309 -173.729 -968.31702
-100.724 -173.089 -968.15198
-81.3078 -163.983 -973.758
-79.722198 -163.07001 -974.25098
-77.044701 -162.082 -973.87201
-76.405602 -161.75999 -974.513
-75.580902 -161.37601 -974.95697
-75.398201 -161.036 -975.638
-74.934898 -160.703 -976.21399
-74.280502 -160.312 -976.64801
-73.799896 -159.925 -977.17499
-73.532997 -159.69099 -977.81702
0 0 0
-73.030296 -159.186 -978.95599
-73.100304 -158.98801 -979.69598
-73.022797 -158.755 -980.27802
-72.691002 -158.44099 -980.65399
-72.522202 -158.258 -981.11401
-72.199799 -158.07001 -981.49402
-72.440102 -157.99899 -982.26703
-72.5476 -157.879 -983.01501
-72.666702 -157.659 -983.875
-72.729897 -157.549 -984.612
-72.148201 -157.145 -984.90503
-72.505997 -157.103 -985.80902
-72.117203 -156.79401 -986.09497
-72.137901 -156.67101 -986.71503
-71.9533 -156.483 -987.19299
-72.182198 -156.39 -988.01898
-71.742203 -156.08701 -988.38702
-71.845596 -155.923 -989.172
-71.561798 -155.60001 -989.698
-71.640404 -155.46899 -990.396
-71.595299 -155.214 -990.94202
-71.830498 -155.12 -991.72302
-71.707603 -154.98801 -992.237
-71.710503 -154.83299 -992.82001
-71.613297 -154.642 -993.37402
-71.371902 -154.367 -993.89899
-71.031998 -154.01801 -994.453
-70.754501 -151.53 -1003.17
-70.491898 -151.315 -1003.71
-70.525597 -151.155 -1004.31
-70.665001 -151.006 -1005.01
-70.1306 -150.70799 -1005.28
-70.333397 -150.593 -1006.06
-70.169899 -150.334 -1006.6
-69.891403 -146.735 -1019.14
-69.591301 -146.455 -1019.59
-69.372902 -146.241 -1020.12
-69.1614 -146.035 -1020.66
-69.4757 -145.98801 -1021.56
-69.305702 -145.763 -1022.05
-69.308296 -145.629 -1022.65
-69.265099 -145.45 -1023.21
-68.9244 -145.187 -1023.52
-69.236504 -145.11501 -1024.4
-68.8937 -144.8 -1024.79
-69.075302 -144.7 -1025.64
-69.104103 -144.534 -1026.34
-69.252098 -144.36301 -1027.08
-68.989403 -144.123 -1027.54
-68.708702 -143.896 -1027.95
-69.100998 -143.806 -1028.86
-68.739998 -143.619 -1029.27
-68.550003 -143.401 -1029.77
-76.750603 -119.431 -1130.72
-75.818802 -119.039 -1130.6801
-76.696198 -119.036 -1131.96
-77.1605 -119.002 -1132.96
-77.8172 -118.815 -1134.63
-77.189102 -118.515 -1134.5601
-77.321098 -118.381 -1135.39
-77.620399 -118.282 -1136.23
-76.825104 -117.904 -1136.26
-79.281502 -118.087 -1138.89
-77.258003 -117.465 -1137.92
-102.466 -173.034 -968.10699
-102.923 -173.017 -969.19598
-100.188 -172.142 -968.31
-95.089798 -168.79601 -972.07898
-82.110001 -163.466 -974.03003
-79.806297 -162.46201 -974.02399
-77.9832 -161.718 -974.16199
-77.085197 -161.244 -974.68701
-75.917397 -160.683 -974.83002
-75.695702 -160.50101 -975.58502
-74.728798 -160.009 -975.82501
-74.171097 -159.627 -976.30798
-74.170197 -159.422 -977.14099
-73.612999 -159.12199 -977.62299
-73.143501 -158.825 -978.09601
-73.425697 -158.716 -979.021
-73.332298 -158.411 -979.59601
-72.996201 -158.187 -980.03302
-72.571198 -157.942 -980.36499
-72.264 -157.76801 -980.76202
-72.471901 -157.69901 -981.453
-73.151398 -157.717 -982.50702
-73.3461 -157.485 -983.28302
-72.859497 -157.162 -983.724
-72.531601 -156.836 -984.16901
-72.562698 -156.655 -984.86798
-72.578201 -156.504 -985.51801
-72.804398 -156.401 -986.26599
-72.648903 -156.202 -986.74103
-72.390602 -155.955 -987.14203
-72.466301 -155.795 -987.83801
-72.553596 -155.638 -988.56702
-72.409401 -155.395 -989.18201
-71.876999 -155.11301 -989.59399
-71.973198 -154.94299 -990.33002
-71.7593 -154.69901 -990.77698
-72.008202 -154.621 -991.52002
-72.104599 -154.504 -992.159
-72.084999 -154.282 -992.72699
-71.825699 -154.035 -993.18701
-71.808502 -153.843 -993.83398
-71.105301 -153.44701 -994.14099
-71.897903 -151.541 -1002.57
-71.433502 -151.144 -1003.26
-70.932602 -150.789 -1003.58
-71.117798 -150.649 -1004.31
-71.142899 -150.496 -1004.95
-71.137299 -150.327 -1005.53
-70.610901 -150.019 -1005.78
-70.6912 -149.89301 -1006.54
-70.873299 -146.34 -1019.34
-70.0858 -145.97099 -1019.42
-69.836502 -145.787 -1019.88
-70.180199 -145.733 -1020.86
-70.288902 -145.571 -1021.57
-69.632797 -145.239 -1021.73
-69.7612 -145.104 -1022.41
-69.939903 -144.995 -1023.13
-69.983398 -144.83099 -1023.71
-70.219597 -144.67101 -1024.48
-69.576401 -144.40199 -1024.73
-69.3265 -144.157 -1025.24
-69.872299 -144.073 -1026.3199
-69.996101 -143.95799 -1027.0699
-69.4272 -143.683 -1027.3199
-69.5662 -143.53799 -1028.03
-69.313698 -143.271 -1028.38
-69.305901 -143.14301 -1029.05
-69.1064 -142.93201 -1029.5601
21.4907 -109.095 -1022.9
-79.437897 -119.298 -1132.55
-78.694504 -118.813 -1133.17
-79.032097 -118.713 -1133.99
-80.115997 -118.792 -1135.4
-79.563004 -118.483 -1135.46
-78.8405 -117.752 -1136.77
-79.243103 -117.381 -1138.51
-102.402 -172.375 -967.78497
-102.707 -172.354 -968.815
-101.322 -171.689 -968.78497
-99.6381 -170.17799 -972.625
-88.334297 -165.504 -973.03302
-80.276299 -161.93401 -974.11102
-78.265297 -161.213 -974.112
-76.891998 -160.543 -974.26801
-76.138496 -160.16901 -974.72498
-75.835098 -159.89799 -975.39697
-74.554398 -159.29401 -975.41498
-74.542503 -159.082 -976.263
-74.014397 -158.72501 -976.711
-74.136803 -158.60699 -977.64203
-72.939796 -158.054 -977.59302
-72.985703 -157.82201 -978.40198
-73.431 -157.812 -979.32098
-73.261398 -157.679 -979.81897
-73.434601 -157.65601 -980.60199
-73.281097 -157.502 -981.12799
-72.943802 -157.241 -981.479
-73.215897 -157.03999 -982.25
-73.151398 -156.752 -982.85999
-73.153702 -156.53 -983.56403
-73.019402 -156.283 -984.15002
-72.779701 -156.03101 -984.65302
-73.1838 -155.97 -985.52197
-72.944603 -155.77901 -985.98401
-72.937302 -155.60001 -986.54102
-72.611397 -155.347 -986.89203
-72.509201 -155.13499 -987.47803
-72.684898 -155.08099 -988.30298
-72.818199 -154.875 -989.07202
-72.321404 -154.614 -989.48499
-72.3358 -154.427 -990.17102
-72.332497 -154.271 -990.82397
-72.221603 -154.04401 -991.31897
-72.372597 -153.90199 -991.98297
-72.180199 -153.675 -992.41901
-72.076797 -153.44901 -992.95801
-72.176498 -153.32201 -993.69702
-71.755798 -152.983 -994.18903
