# .PCD v0.7 - Point Cloud Data file format
VERSION 0.7
FIELDS x y z
SIZE 4 4 4
TYPE F F F
COUNT 1 1 1
WIDTH 1948
HEIGHT 1
VIEWPOINT 0 0 0 1 0 0 0
POINTS 1948
DATA ascii
44.023998 35.351398 -1007.88
0 0 0
43.470501 35.680599 -1008.64
43.159698 35.8214 -1008.95
42.9081 36.062698 -1009.43
42.616199 36.2407 -1009.81
0 0 0
0 0 0
41.800499 36.847801 -1011.15
41.5667 37.117901 -1011.7
41.248699 37.251202 -1012.02
40.972301 37.489399 -1012.5
40.713402 37.7192 -1013
0 0 0
40.034698 38.022301 -1013.64
39.6492 38.103802 -1013.86
39.3606 38.322899 -1014.36
39.0839 38.596901 -1014.87
38.641602 38.581299 -1014.95
38.431099 38.937801 -1015.61
0 0 0
0 0 0
37.394402 39.361099 -1016.64
0 0 0
36.671101 39.681599 -1017.31
36.1245 39.572102 -1017.2
35.798599 39.7981 -1017.65
0 0 0
35.029202 40.048 -1018.27
0 0 0
34.243301 40.2803 -1018.86
33.9781 40.595402 -1019.44
33.743 40.9631 -1020.19
32.986599 40.6138 -1019.61
0 0 0
32.141399 40.875 -1020.18
31.8036 41.057701 -1020.58
31.388 41.0788 -1020.72
30.906601 41.927399 -1022.44
26.2759 41.417801 -1022.03
26.943001 43.071999 -1025.05
25.717501 42.180801 -1023.54
25.289101 42.294498 -1023.81
0 0 0
0 0 0
0 0 0
23.5098 42.945801 -1025.25
22.697901 42.622398 -1024.75
22.3528 42.946201 -1025.42
0 0 0
21.242901 43.032101 -1025.72
20.7363 43.1413 -1025.96
20.298 43.336201 -1026.38
0 0 0
0 0 0
18.4209 43.2533 -1026.39
17.865101 43.364399 -1026.71
17.309799 43.470798 -1026.96
16.652 43.436001 -1026.96
16.042101 43.494499 -1027.13
15.4799 43.5569 -1027.3101
14.7057 43.352501 -1027.03
14.077 43.344101 -1027.11
13.4909 43.462502 -1027.35
12.8615 43.545601 -1027.5699
12.1052 43.392899 -1027.4
11.4432 43.4856 -1027.63
10.712 43.420799 -1027.5699
9.9093904 43.3055 -1027.46
9.1124897 43.207699 -1027.35
8.4275503 43.248501 -1027.48
7.8225698 43.391399 -1027.8199
7.0046701 43.2328 -1027.61
6.0911598 43.046799 -1027.35
5.2965698 43.037399 -1027.37
4.4352102 42.907799 -1027.25
3.69333 42.977699 -1027.46
2.77176 42.8508 -1027.3
1.59094 42.441601 -1026.6
0 0 0
-0.050994899 42.556599 -1027.03
-1.21811 42.1805 -1026.42
-2.0848999 42.172001 -1026.48
-3.13239 42.127102 -1026.45
0 0 0
-5.8956599 41.2178 -1024.98
-7.4035602 40.822102 -1024.33
-8.7906199 40.569199 -1024.02
-10.7783 39.809799 -1022.8
47.728802 27.6546 -990.95203
47.7425 28.059999 -991.72803
47.796299 28.554399 -992.66998
47.809601 28.988199 -993.48602
0 0 0
0 0 0
47.634499 29.9492 -995.49799
47.505501 30.196199 -995.992
47.433498 30.515699 -996.64099
47.346802 30.8321 -997.29498
0 0 0
0 0 0
46.971298 31.727501 -999.11499
46.859299 32.055698 -999.79303
46.678001 32.256302 -1000.24
46.508099 32.517601 -1000.77
46.383099 32.847301 -1001.41
46.2328 33.139999 -1002
46.039001 33.351002 -1002.45
45.879002 33.645699 -1003.07
45.668201 33.869301 -1003.54
45.454601 34.076599 -1003.99
0 0 0
45.0625 34.610199 -1005.12
44.883099 34.9501 -1005.75
0 0 0
0 0 0
0 0 0
43.901299 35.6996 -1007.4
0 0 0
0 0 0
43.128799 36.341599 -1008.76
0 0 0
0 0 0
0 0 0
42.0508 37.180199 -1010.54
41.753799 37.353802 -1010.91
41.5425 37.660801 -1011.51
41.178299 37.7202 -1011.72
40.886902 37.902302 -1012.11
40.652401 38.188099 -1012.72
40.209702 38.151798 -1012.73
40.008301 38.5233 -1013.45
39.585899 38.549099 -1013.58
39.258801 38.741901 -1013.94
39.042999 39.074501 -1014.65
38.590401 39.0639 -1014.69
0 0 0
0 0 0
37.605701 39.5527 -1015.77
0 0 0
36.874401 39.870098 -1016.44
36.603802 40.156101 -1017.05
36.0853 40.062401 -1016.98
0 0 0
35.5117 40.621799 -1018.12
34.9785 40.523701 -1018
0 0 0
34.216499 40.794998 -1018.64
33.940601 41.081299 -1019.22
0 0 0
32.964298 41.113098 -1019.39
0 0 0
32.1376 41.387199 -1020.02
31.7167 41.459702 -1020.2
31.309 41.516102 -1020.36
30.6192 41.3167 -1020.01
30.671101 42.288601 -1021.81
29.8916 41.789101 -1020.91
26.985701 43.671101 -1025.05
25.7292 42.7463 -1023.44
25.158199 42.667599 -1023.37
0 0 0
24.621599 43.448299 -1024.91
23.7136 42.976501 -1024.16
0 0 0
0 0 0
22.3318 43.478699 -1025.22
21.915899 43.724998 -1025.72
21.1113 43.380402 -1025.21
20.688999 43.6147 -1025.66
0 0 0
19.590401 43.733601 -1026
18.961201 43.7299 -1026.05
0 0 0
17.7976 43.787498 -1026.36
17.2379 43.901901 -1026.61
16.521999 43.7785 -1026.45
15.9151 43.845901 -1026.6899
15.3162 43.875301 -1026.78
14.7507 43.972599 -1026.99
13.9758 43.730598 -1026.6801
13.5594 44.136002 -1027.42
12.7955 43.966999 -1027.24
12.1638 44.060799 -1027.45
11.3163 43.8372 -1027.13
10.7115 44.007099 -1027.47
9.7725801 43.676102 -1026.97
9.1257896 43.798599 -1027.28
8.2940702 43.6241 -1027
7.59058 43.6301 -1027.13
6.8699298 43.625801 -1027.15
6.16711 43.7369 -1027.42
5.2000699 43.459 -1027
0 0 0
0 0 0
2.7189 43.368801 -1027.0699
1.68265 43.1241 -1026.74
0.529724 42.7169 -1026.14
-0.22466999 42.933601 -1026.5601
-1.41721 42.503799 -1025.84
-2.1098599 42.875401 -1026.53
0 0 0
-4.41254 42.409698 -1025.86
-6.1458101 41.542702 -1024.42
-7.4946299 41.291698 -1023.98
-9.3407898 40.6637 -1022.92
-10.8764 40.453701 -1022.72
-13.8222 39.063999 -1020.39
47.653 28.5863 -991.51801
0 0 0
47.600899 29.2628 -992.89301
0 0 0
47.548199 30.031799 -994.40302
47.490898 30.370501 -995.08002
0 0 0
0 0 0
47.2327 31.2728 -996.94598
47.164299 31.6187 -997.61102
0 0 0
0 0 0
46.752399 32.483101 -999.40198
46.617199 32.787701 -999.98901
46.460201 33.056702 -1000.57
46.315701 33.322701 -1001.14
46.166801 33.6101 -1001.7
0 0 0
45.823299 34.148701 -1002.85
45.592201 34.3241 -1003.24
45.3853 34.559399 -1003.69
0 0 0
44.984001 35.0923 -1004.8
0 0 0
44.542599 35.563099 -1005.8
44.293999 35.721199 -1006.18
0 0 0
43.848598 36.209801 -1007.16
0 0 0
43.361401 36.679699 -1008.12
43.077801 36.836201 -1008.51
0 0 0
0 0 0
42.276299 37.481098 -1009.85
42.069302 37.786201 -1010.48
41.7043 37.826801 -1010.66
41.471901 38.098499 -1011.22
41.146 38.242802 -1011.5
40.8941 38.4916 -1012.03
40.549198 38.603199 -1012.3
40.235298 38.7686 -1012.69
39.940899 38.9944 -1013.13
39.569 39.103802 -1013.4
39.281502 39.3395 -1013.9
0 0 0
38.532501 39.516602 -1014.39
38.330399 39.879002 -1015.08
0 0 0
0 0 0
37.261501 40.2756 -1016.03
0 0 0
36.526299 40.567902 -1016.71
35.9888 40.469101 -1016.58
0 0 0
35.415001 41.030201 -1017.72
34.9039 40.970798 -1017.69
0 0 0
34.174 41.2686 -1018.37
33.898602 41.575699 -1018.98
33.537601 41.762001 -1019.37
32.934601 41.616501 -1019.19
32.849998 42.189499 -1020.27
32.022598 41.778801 -1019.58
31.7897 42.099899 -1020.26
31.4524 42.305401 -1020.67
30.665899 41.890598 -1020.03
30.1703 42.1936 -1020.53
29.8339 42.158199 -1020.44
25.830799 43.406101 -1023.48
25.281 43.404999 -1023.52
0 0 0
24.682301 44.050499 -1024.89
23.808701 43.681301 -1024.28
0 0 0
22.782 43.822601 -1024.6801
22.195601 43.838001 -1024.79
0 0 0
21.0539 43.841599 -1024.91
20.653799 44.105801 -1025.4399
20.1609 44.229599 -1025.73
19.535999 44.211201 -1025.76
0 0 0
18.403999 44.318501 -1026.09
17.702101 44.225201 -1025.97
17.117701 44.2644 -1026.14
16.388201 44.148998 -1025.98
15.8747 44.335899 -1026.42
0 0 0
14.7238 44.522701 -1026.84
14.1121 44.535702 -1026.9301
13.4606 44.5154 -1027.02
12.7234 44.464199 -1026.95
12.0738 44.479698 -1027.1
11.3241 44.432098 -1027.0601
10.5968 44.374199 -1027.03
9.7929697 44.2374 -1026.89
9.0948496 44.297699 -1027.04
8.3199797 44.232201 -1026.95
7.4869099 44.076401 -1026.79
6.80164 44.119202 -1026.92
0 0 0
5.1167598 43.909302 -1026.6801
4.4018602 43.972198 -1026.95
3.43909 43.8209 -1026.66
2.6417799 43.882 -1026.85
1.47998 43.463402 -1026.1899
0 0 0
-0.47924799 43.144001 -1025.78
0 0 0
-2.38431 43.069599 -1025.78
-3.5097699 42.871201 -1025.5
-4.7619901 42.619801 -1025.05
-5.8592501 42.676998 -1025.25
-8.0085802 41.302299 -1022.89
-9.6018105 40.902901 -1022.19
-12.1164 39.826302 -1020.4
0 0 0
47.513401 29.031601 -991.13098
0 0 0
0 0 0
47.442001 30.0875 -993.26501
47.435101 30.4916 -994.06598
47.375599 30.7892 -994.68597
0 0 0
47.243401 31.4646 -996.08002
47.1432 31.7467 -996.65503
47.069401 32.0909 -997.32098
46.943802 32.384102 -997.914
46.790699 32.6595 -998.50299
46.664101 32.9589 -999.09998
46.506199 33.194 -999.62598
46.391899 33.5228 -1000.31
46.190399 33.735699 -1000.73
46.108101 34.135799 -1001.53
0 0 0
45.701401 34.545898 -1002.38
45.493999 34.749802 -1002.84
45.338799 35.083801 -1003.51
0 0 0
44.917198 35.572601 -1004.53
0 0 0
44.446098 35.987999 -1005.42
44.211498 36.197899 -1005.86
0 0 0
43.845501 36.7771 -1007.07
0 0 0
43.226799 36.981899 -1007.6
42.999298 37.2831 -1008.17
42.743801 37.4949 -1008.63
42.4683 37.7136 -1009.06
42.226398 37.965099 -1009.59
41.946701 38.137699 -1010.01
41.620899 38.262699 -1010.32
41.413502 38.539001 -1010.9
41.039902 38.618698 -1011.09
40.784698 38.868599 -1011.63
40.491001 39.085201 -1012.04
40.1548 39.2341 -1012.36
39.8629 39.432899 -1012.81
39.486698 39.5173 -1013.07
39.213799 39.783501 -1013.61
38.891399 39.971001 -1013.98
38.529701 40.070599 -1014.25
0 0 0
37.855099 40.375099 -1014.95
0 0 0
37.180901 40.725201 -1015.68
0 0 0
0 0 0
36.009399 41.046001 -1016.49
35.737202 41.385502 -1017.14
35.3517 41.5093 -1017.43
34.897598 41.506302 -1017.52
0 0 0
34.153301 41.799801 -1018.14
33.8022 41.9781 -1018.57
33.430199 42.155201 -1018.92
32.902199 42.114601 -1018.96
32.637501 42.4105 -1019.55
31.985701 42.2687 -1019.33
31.634701 42.430698 -1019.71
30.7059 42.3988 -1019.89
29.666401 42.480499 -1019.99
26.862801 44.616501 -1024.48
0 0 0
25.302 43.9678 -1023.4
0 0 0
0 0 0
0 0 0
23.4352 44.505402 -1024.6801
22.621401 44.153 -1024.09
22.180401 44.362701 -1024.5699
21.6731 44.462002 -1024.83
21.065001 44.423698 -1024.79
20.5833 44.541801 -1025.09
20.079399 44.665901 -1025.36
19.4107 44.587898 -1025.27
0 0 0
18.3286 44.766201 -1025.72
17.6978 44.7491 -1025.8101
17.141899 44.865101 -1026.08
16.5212 44.882702 -1026.17
15.8578 44.879501 -1026.23
15.1971 44.846001 -1026.23
14.5707 44.823002 -1026.28
13.9948 44.8848 -1026.5
13.3065 44.881699 -1026.47
12.6786 44.933601 -1026.71
11.8925 44.778999 -1026.49
11.2708 44.891499 -1026.78
10.6333 44.990799 -1026.99
9.8935204 45.0098 -1027.0601
8.9749498 44.702 -1026.58
8.3950195 44.873798 -1027
0 0 0
6.71033 44.5364 -1026.5601
6.0046401 44.639599 -1026.79
5.01337 44.356998 -1026.34
4.2171602 44.337002 -1026.4
3.3535199 44.2472 -1026.29
2.3338001 44.0397 -1025.96
1.70163 44.4072 -1026.63
0 0 0
-0.340637 43.979099 -1026.1
-1.44995 43.692001 -1025.62
-2.7908001 43.138699 -1024.73
-3.8030701 43.211102 -1024.89
-5.0581398 42.829601 -1024.28
-6.2466698 42.708 -1024.16
-7.8901701 42.137798 -1023.25
47.424999 29.499599 -990.89398
47.447201 29.9177 -991.71301
0 0 0
0 0 0
0 0 0
0 0 0
47.1679 31.471201 -994.89801
0 0 0
47.0569 32.174801 -996.34802
0 0 0
46.892101 32.858101 -997.711
46.761101 33.1702 -998.34399
0 0 0
46.416 33.623199 -999.315
46.310398 33.971298 -1000
0 0 0
45.988201 34.481998 -1001.09
45.836899 34.763401 -1001.65
0 0 0
45.469501 35.2556 -1002.73
45.240299 35.443501 -1003.12
0 0 0
44.8302 35.948101 -1004.19
44.607101 36.216099 -1004.7
44.367401 36.395302 -1005.12
44.1618 36.638901 -1005.64
43.9543 36.902699 -1006.16
43.663898 37.011501 -1006.42
0 0 0
43.245701 37.575298 -1007.6
42.975101 37.763802 -1007.98
0 0 0
42.3918 38.087399 -1008.73
42.142399 38.334499 -1009.27
41.8703 38.555698 -1009.7
41.57 38.716801 -1010.08
41.3232 38.932098 -1010.57
40.993301 39.059601 -1010.83
40.672401 39.232601 -1011.2
40.470901 39.574799 -1011.89
40.0891 39.6231 -1012.07
39.818802 39.870499 -1012.57
39.4398 39.9594 -1012.82
39.168598 40.248798 -1013.38
38.808201 40.345299 -1013.63
38.441399 40.450298 -1013.88
38.2006 40.766499 -1014.48
0 0 0
37.450401 40.941601 -1014.98
37.1091 41.112202 -1015.37
36.733898 41.263901 -1015.66
0 0 0
0 0 0
35.6511 41.743999 -1016.76
35.253201 41.850899 -1017.03
34.8409 41.940201 -1017.26
0 0 0
0 0 0
33.771599 42.451 -1018.38
33.346802 42.518902 -1018.59
32.836201 42.509899 -1018.65
0 0 0
31.952499 42.705601 -1019.1
31.673201 42.993099 -1019.71
31.3374 43.181499 -1020.11
30.8979 43.432999 -1020.63
30.8039 44.004501 -1021.74
30.0191 43.486301 -1020.85
29.3477 44.055099 -1022.35
27.4025 42.998001 -1020.18
26.5058 43.856499 -1021.97
26.6679 44.8545 -1023.82
25.5257 44.029202 -1022.43
25.0963 44.174198 -1022.77
24.764799 44.473801 -1023.36
24.542601 44.9417 -1024.28
23.563601 44.384602 -1023.34
23.379601 44.892899 -1024.36
22.669399 44.718899 -1024.09
22.100401 44.7379 -1024.2
21.618401 44.889801 -1024.5699
0 0 0
20.488899 44.937901 -1024.75
20.057699 45.135101 -1025.1801
19.443899 45.1395 -1025.23
18.8727 45.1661 -1025.39
0 0 0
17.6485 45.206402 -1025.6
17.0485 45.276501 -1025.74
16.439501 45.297401 -1025.87
15.7827 45.285702 -1025.9301
15.2219 45.377499 -1026.17
14.6061 45.409599 -1026.28
13.9014 45.280201 -1026.11
13.3144 45.4081 -1026.41
12.595 45.3577 -1026.36
11.8714 45.275501 -1026.3199
11.15 45.2714 -1026.38
10.5079 45.353699 -1026.5699
9.7263803 45.2705 -1026.5
8.86584 45.0765 -1026.25
8.1885996 45.1558 -1026.37
7.4754 45.1245 -1026.47
6.5991802 44.940399 -1026.17
5.7817998 44.8741 -1026.09
0 0 0
4.1711702 44.7966 -1026.09
0 0 0
2.37451 44.6259 -1025.9399
0 0 0
0.33367899 44.243099 -1025.45
-0.548096 44.198002 -1025.41
0 0 0
0 0 0
-3.8689899 43.573101 -1024.59
-5.0464501 43.487999 -1024.41
-6.5436401 42.9706 -1023.6
-7.8425899 42.873699 -1023.45
-10.2115 41.423401 -1021.06
-12.6609 40.612202 -1019.54
0 0 0
47.358002 31.106501 -993.02899
47.307201 31.4431 -993.651
47.2393 31.7206 -994.23999
0 0 0
47.072498 32.299801 -995.46997
46.997799 32.619499 -996.13202
0 0 0
0 0 0
46.666199 33.544601 -998.03198
46.547001 33.862801 -998.66199
46.3377 34.042702 -999.06201
0 0 0
46.041698 34.579899 -1000.17
45.891998 34.838799 -1000.75
0 0 0
45.610699 35.476601 -1001.99
45.389599 35.6647 -1002.45
45.158699 35.839802 -1002.84
0 0 0
44.763802 36.3713 -1003.9
44.551601 36.636002 -1004.46
44.3354 36.865799 -1004.95
44.0989 37.0723 -1005.37
0 0 0
43.6493 37.510502 -1006.33
43.410801 37.745701 -1006.81
43.138 37.9245 -1007.18
42.8755 38.101299 -1007.6
0 0 0
42.4058 38.6101 -1008.69
42.106499 38.792702 -1009.08
41.811001 38.947102 -1009.44
41.5135 39.139301 -1009.84
41.234901 39.3256 -1010.23
40.966999 39.539299 -1010.68
40.627602 39.664101 -1010.95
40.347698 39.869598 -1011.41
40.039902 40.040401 -1011.8
39.721199 40.219398 -1012.19
39.444099 40.483101 -1012.72
39.1147 40.6488 -1013.09
38.763199 40.765202 -1013.38
0 0 0
38.118 41.137299 -1014.15
37.783901 41.2733 -1014.52
37.455002 41.451302 -1014.9
37.125599 41.666199 -1015.36
36.717098 41.739899 -1015.54
36.366501 41.8722 -1015.84
36.021801 42.080002 -1016.29
35.565601 42.102798 -1016.42
35.274799 42.395401 -1017.01
34.739101 42.267502 -1016.84
0 0 0
34.0583 42.6563 -1017.66
33.7229 42.876598 -1018.1
33.407501 43.139702 -1018.67
32.8773 43.062698 -1018.64
0 0 0
31.988501 43.229198 -1019.08
31.617201 43.435902 -1019.48
31.2157 43.498699 -1019.71
30.7659 43.669601 -1020.12
0 0 0
0 0 0
28.091999 45.129002 -1023.16
0 0 0
26.256599 43.997501 -1021.19
26.763399 45.4548 -1023.92
25.7397 44.8321 -1022.86
25.1189 44.686901 -1022.71
24.772499 44.975601 -1023.28
0 0 0
23.5912 44.943699 -1023.31
23.265301 45.260502 -1023.96
22.621201 45.153 -1023.86
22.0872 45.242599 -1024.0601
21.608801 45.380901 -1024.38
21.1106 45.476299 -1024.65
20.567301 45.510899 -1024.77
19.991899 45.529499 -1024.86
0 0 0
18.876101 45.672199 -1025.26
18.2216 45.619598 -1025.24
17.601801 45.654999 -1025.3199
17.010401 45.6758 -1025.48
16.3598 45.673901 -1025.55
15.6949 45.6661 -1025.53
15.146 45.752102 -1025.8199
14.5094 45.770401 -1025.88
13.9055 45.8134 -1026.05
13.2297 45.791401 -1026.0699
12.5486 45.791698 -1026.16
11.8674 45.798698 -1026.2
11.1219 45.756401 -1026.17
10.497 45.835999 -1026.41
9.61514 45.6222 -1026.09
8.8892202 45.5886 -1026.17
8.2033701 45.6824 -1026.35
7.4939299 45.6772 -1026.4399
0 0 0
5.7660198 45.332401 -1025.92
4.9634399 45.372101 -1026.04
4.22855 45.444 -1026.26
3.2681 45.251701 -1026
2.3266599 45.069599 -1025.78
0 0 0
0.28125 44.694698 -1025.26
-0.51321399 44.796398 -1025.49
0 0 0
-2.84863 44.210201 -1024.5699
-4.1104102 43.952599 -1024.09
0 0 0
-6.6552401 43.5028 -1023.37
-8.1057701 43.2668 -1023.12
-9.9099398 42.722401 -1022.14
0 0 0
0 0 0
47.195999 31.411301 -992.53802
47.176102 31.7726 -993.26001
47.140701 32.101002 -993.96802
47.091202 32.452202 -994.68903
47.033001 32.788601 -995.35101
46.916199 33.032398 -995.86401
46.795898 33.277599 -996.422
46.697201 33.621101 -997.10901
0 0 0
46.426899 34.2244 -998.29102
46.2868 34.4702 -998.86902
46.173302 34.796799 -999.52802
46.0182 35.051399 -1000.03
45.855 35.297199 -1000.57
45.681599 35.537899 -1001.05
45.5116 35.819698 -1001.63
45.3288 36.078999 -1002.17
0 0 0
44.930901 36.573898 -1003.23
44.721699 36.7995 -1003.7
44.4758 36.995201 -1004.15
44.241901 37.197102 -1004.57
44.053001 37.511002 -1005.17
0 0 0
43.5826 37.907001 -1006.05
43.399799 38.208302 -1006.7
43.125 38.391102 -1007.08
42.857101 38.578899 -1007.48
0 0 0
0 0 0
42.069199 39.234699 -1008.87
41.788502 39.435501 -1009.3
0 0 0
41.2075 39.739101 -1010.02
40.953899 40.0201 -1010.54
40.656399 40.180698 -1010.93
40.3423 40.352798 -1011.32
39.987499 40.4646 -1011.6
39.7118 40.699001 -1012.09
39.365299 40.837898 -1012.38
39.1273 41.134499 -1013.02
0 0 0
0 0 0
0 0 0
37.719299 41.6511 -1014.21
0 0 0
37.020901 41.971298 -1014.91
36.647499 42.113499 -1015.21
36.319 42.296001 -1015.63
35.928001 42.416698 -1015.9
0 0 0
35.257801 42.837799 -1016.81
34.7742 42.821999 -1016.84
34.441101 42.9916 -1017.23
34.081402 43.181499 -1017.63
33.6315 43.223999 -1017.74
0 0 0
32.826302 43.4659 -1018.37
32.4837 43.690201 -1018.87
31.8661 43.534599 -1018.6
31.6091 43.888199 -1019.3
31.1623 43.908001 -1019.39
30.687099 44.079399 -1019.78
30.4296 44.441002 -1020.44
30.007601 44.590099 -1020.74
0 0 0
0 0 0
28.118099 45.641499 -1023.04
26.4 44.7061 -1021.44
27.0478 46.3493 -1024.5
25.6957 45.212799 -1022.54
24.926901 44.9035 -1022.05
24.4711 45.066898 -1022.4
0 0 0
23.607599 45.421501 -1023.2
23.1434 45.579102 -1023.53
22.5145 45.4739 -1023.38
22.0923 45.721199 -1023.93
0 0 0
21.0187 45.845001 -1024.3101
20.458099 45.8559 -1024.4
19.933399 45.9767 -1024.65
19.322201 45.941799 -1024.64
18.828199 46.1064 -1025.03
18.187 46.053001 -1024.98
0 0 0
17.029301 46.204399 -1025.41
0 0 0
15.6883 46.114601 -1025.4
15.1207 46.201401 -1025.63
14.5465 46.308498 -1025.88
13.8337 46.205399 -1025.74
13.1716 46.216999 -1025.8101
12.4728 46.223598 -1025.87
11.9188 46.4767 -1026.25
11.0674 46.143501 -1025.88
0 0 0
0 0 0
0 0 0
8.1590004 46.088402 -1026.0601
7.3232098 45.9356 -1025.88
6.6008601 45.9552 -1026.01
0 0 0
0 0 0
4.1106601 45.7794 -1025.88
3.07935 45.520401 -1025.46
2.27881 45.540501 -1025.5699
0 0 0
0.117798 44.977501 -1024.7
-0.85839802 44.929798 -1024.66
-1.57895 45.199299 -1025.2
-3.1290901 44.354698 -1023.86
-4.3446698 44.094601 -1023.42
-5.19205 44.399399 -1024
-6.72961 44.018501 -1023.38
-8.35571 43.458698 -1022.49
-10.6772 42.304501 -1020.45
-13.2256 41.216999 -1018.31
0 0 0
0 0 0
47.1147 31.838499 -992.30701
0 0 0
46.9869 32.407299 -993.52899
46.958599 32.7952 -994.27802
46.917099 33.176601 -995.00702
46.835899 33.470901 -995.63702
46.7528 33.781502 -996.29102
46.628201 34.046001 -996.86499
46.496101 34.3507 -997.45898
46.366199 34.659599 -998.07397
46.227699 34.9217 -998.62299
46.097301 35.209 -999.21802
45.898899 35.370602 -999.62
45.779999 35.744598 -1000.35
45.6035 35.969101 -1000.81
0 0 0
0 0 0
0 0 0
0 0 0
44.659698 37.2332 -1003.47
44.473099 37.522999 -1004.06
44.241001 37.708099 -1004.49
44.0443 37.975399 -1005.05
43.7509 38.122501 -1005.34
43.489799 38.273499 -1005.68
0 0 0
43.0229 38.746601 -1006.7
42.764099 38.944 -1007.13
0 0 0
0 0 0
0 0 0
41.6894 39.8036 -1008.93
41.408699 39.9674 -1009.3
41.180901 40.251099 -1009.85
40.8671 40.362499 -1010.17
40.556999 40.533001 -1010.53
40.258701 40.737202 -1010.98
39.928001 40.863098 -1011.28
39.653999 41.118999 -1011.82
39.276798 41.203602 -1012.02
38.958099 41.385601 -1012.43
38.693699 41.672501 -1013.01
38.338299 41.765202 -1013.27
38.015099 41.938202 -1013.62
37.6791 42.086201 -1013.97
0 0 0
36.986698 42.4268 -1014.71
0 0 0
36.269001 42.750401 -1015.41
35.886398 42.853199 -1015.68
35.509201 43.0117 -1016.03
35.2201 43.311298 -1016.6
34.7206 43.2267 -1016.54
34.4767 43.5648 -1017.24
34.025299 43.621799 -1017.37
33.633801 43.735699 -1017.65
33.303101 43.973202 -1018.15
0 0 0
0 0 0
31.928101 44.159801 -1018.67
0 0 0
31.232201 44.632702 -1019.6
0 0 0
30.139 44.5228 -1019.46
29.795401 44.782902 -1019.98
29.4529 45.0434 -1020.49
29.0828 45.302101 -1020.98
28.691799 45.544899 -1021.51
28.073799 45.4203 -1021.36
27.672899 45.542999 -1021.77
27.256201 45.770199 -1022.22
26.4911 45.4394 -1021.67
26.113501 45.598099 -1022.11
0 0 0
25.0611 45.6357 -1022.31
24.6877 45.910198 -1022.88
24.1922 45.995098 -1023.09
0 0 0
23.090401 46.0751 -1023.34
22.6238 46.253201 -1023.71
22.0359 46.214901 -1023.77
21.404301 46.1548 -1023.71
20.938601 46.326302 -1024.0699
0 0 0
0 0 0
0 0 0
18.7356 46.532101 -1024.73
18.1108 46.489899 -1024.75
17.5289 46.579498 -1024.95
0 0 0
16.262501 46.589298 -1025.1
15.7689 46.7687 -1025.5
15.073 46.6362 -1025.34
0 0 0
13.7556 46.600601 -1025.38
13.1846 46.712601 -1025.66
12.4691 46.742199 -1025.78
11.7122 46.712898 -1025.77
10.9669 46.683498 -1025.67
10.3424 46.6422 -1025.67
9.5824299 46.578899 -1025.79
8.8899202 46.6721 -1025.92
7.9710102 46.385502 -1025.48
7.34689 46.541599 -1025.92
6.55164 46.365299 -1025.72
5.6300001 46.155399 -1025.39
4.9016399 46.225399 -1025.59
0 0 0
2.9955101 45.9184 -1025.17
2.1157801 45.8745 -1025.11
1.31662 46.0023 -1025.46
0.150085 45.574699 -1024.6801
-0.94192499 45.2808 -1024.3
-1.6788 45.575401 -1024.85
-3.1335101 44.8853 -1023.69
-4.4710999 44.446201 -1023.06
-5.5237398 44.493 -1023.14
-6.9546199 44.181099 -1022.67
-9.0680504 43.1124 -1020.74
-10.5521 43.090302 -1020.91
-13.0405 42.1129 -1019
46.979401 31.854401 -991.15997
46.986099 32.243599 -991.95599
46.955299 32.5816 -992.62
46.897999 32.876202 -993.22101
46.865101 33.232498 -993.96198
0 0 0
0 0 0
46.607201 34.163898 -995.84302
46.503799 34.442001 -996.461
0 0 0
46.263901 35.0303 -997.66199
46.1525 35.3587 -998.375
0 0 0
0 0 0
45.695702 36.1674 -1000.04
45.5429 36.419998 -1000.56
45.367599 36.692501 -1001.09
45.158199 36.915501 -1001.57
44.9482 37.1049 -1002
44.796799 37.421902 -1002.65
44.5952 37.668701 -1003.18
0 0 0
44.173302 38.175499 -1004.22
43.925999 38.323299 -1004.6
0 0 0
43.497299 38.836498 -1005.64
0 0 0
42.993698 39.238998 -1006.51
42.657902 39.299301 -1006.71
0 0 0
0 0 0
41.949501 40.114601 -1008.37
41.6329 40.2411 -1008.66
41.362999 40.4245 -1009.07
41.097301 40.641399 -1009.52
40.793499 40.783298 -1009.87
40.549 41.057701 -1010.44
40.231899 41.2328 -1010.78
39.876999 41.339802 -1011.05
39.603199 41.606098 -1011.58
0 0 0
0 0 0
38.622398 42.099499 -1012.7
38.3004 42.272099 -1013.04
38.003101 42.4758 -1013.51
37.6157 42.5257 -1013.67
37.2934 42.735001 -1014.16
36.912701 42.852402 -1014.39
36.6436 43.169399 -1015.01
36.250198 43.308498 -1015.28
35.814701 43.3521 -1015.44
35.429199 43.495399 -1015.79
35.031502 43.606602 -1016.05
0 0 0
34.264198 43.9231 -1016.7
0 0 0
33.447601 44.114498 -1017.17
0 0 0
32.716702 44.534 -1018.05
0 0 0
31.846399 44.8377 -1018.65
31.493401 45.172798 -1019.2
30.9949 45.152401 -1019.31
30.4069 45.151901 -1019.28
29.9055 45.019901 -1019.2
29.429399 45.082401 -1019.39
29.1213 45.4608 -1020.07
28.853901 45.963402 -1020.99
28.3596 45.967999 -1021.13
27.7903 46.051899 -1021.29
27.479099 46.377899 -1021.95
26.6007 45.872501 -1021.18
25.5347 45.1147 -1019.93
25.638599 45.953999 -1021.52
25.103901 46.012199 -1021.62
24.1241 46.219898 -1022.16
23.565901 46.261398 -1022.39
21.327299 47.049599 -1024.16
20.983601 47.391201 -1024.76
17.497299 47.434898 -1025.1899
16.6703 47.073399 -1024.7
15.9504 46.914299 -1024.48
15.4669 47.119202 -1024.9399
14.8558 47.118301 -1024.99
14.326 47.310501 -1025.39
13.5473 47.0867 -1025.0601
12.8974 46.995098 -1025.0601
12.3326 47.188202 -1025.49
11.6163 47.0769 -1025.47
11.0893 47.2994 -1025.97
10.0952 46.823101 -1025.09
9.4435396 46.972698 -1025.36
8.83008 47.2924 -1025.86
7.9395099 46.851101 -1025.3
7.1394701 46.736099 -1025.21
6.4228802 46.804199 -1025.38
5.5871902 46.694199 -1025.25
4.6876202 46.503502 -1025.02
0 0 0
0 0 0
2.03983 46.287201 -1024.86
1.03671 46.175499 -1024.64
0.0270386 46.017601 -1024.46
-1.00388 45.8092 -1024.16
-2.2068501 45.494999 -1023.62
0 0 0
0 0 0
-5.6237202 45.049301 -1022.99
-7.2021499 44.504398 -1022.07
-8.9720497 43.880699 -1021.13
-11.3444 42.929199 -1019.32
46.8358 32.232498 -990.76599
46.794201 32.544498 -991.40302
0 0 0
0 0 0
46.690102 33.545601 -993.44
0 0 0
46.605701 34.298901 -994.95898
0 0 0
46.421902 34.9044 -996.23199
46.304199 35.1717 -996.81598
46.196301 35.444 -997.39502
46.0233 35.716702 -997.91803
45.925598 36.098701 -998.698
45.796299 36.412201 -999.29102
45.569302 36.536098 -999.62799
45.394798 36.724499 -1000.06
45.239799 37.062698 -1000.71
0 0 0
44.8932 37.544701 -1001.75
0 0 0
0 0 0
0 0 0
44.075901 38.568401 -1003.85
0 0 0
43.595501 38.961899 -1004.72
43.4562 39.3069 -1005.47
0 0 0
0 0 0
42.661701 39.863998 -1006.64
42.4725 40.211399 -1007.3
42.151199 40.317501 -1007.59
41.8601 40.4916 -1007.98
41.622601 40.773399 -1008.54
41.347599 40.937302 -1008.92
41.0266 41.058201 -1009.22
40.710602 41.2061 -1009.53
40.492599 41.531399 -1010.18
40.124802 41.6171 -1010.42
39.878399 41.961899 -1011
0 0 0
39.138802 42.148201 -1011.5
38.789398 42.2981 -1011.87
38.496601 42.553902 -1012.36
0 0 0
0 0 0
0 0 0
37.164501 43.380001 -1014
36.756199 43.419601 -1014.21
36.4188 43.7001 -1014.68
36.035599 43.924999 -1015.15
35.356098 43.624298 -1014.72
34.717899 43.535702 -1014.62
34.625198 44.200401 -1015.84
34.355701 44.642502 -1016.64
33.595699 44.179298 -1015.94
32.955101 43.9734 -1015.68
32.296902 44.7029 -1017.11
31.037399 45.435001 -1018.6
30.374201 45.017601 -1018.05
28.969601 44.5798 -1017.4
28.417801 44.630901 -1017.53
28.8508 46.0956 -1020.17
27.392 45.6563 -1019.5
26.719299 45.495602 -1019.32
26.509001 45.999802 -1020.3
25.115101 44.741001 -1018.18
24.521799 44.506199 -1017.93
23.4426 44.5811 -1018.12
21.8241 46.213501 -1021.55
21.895599 47.0938 -1023.21
17.2139 46.160599 -1021.83
17.0305 46.867298 -1023.08
16.711 47.0984 -1023.6
16.1542 48.0158 -1025.34
14.4308 46.332199 -1022.47
14.6935 47.621101 -1024.72
12.92 46.6423 -1023.18
12.9007 47.514198 -1024.6899
12.233 47.419498 -1024.61
11.5688 47.2206 -1024.4301
11.0427 47.4128 -1024.78
10.5271 47.4394 -1025.01
9.7887297 47.3629 -1024.87
0 0 0
0 0 0
7.8723402 47.5126 -1025.36
7.1048598 47.383301 -1025.26
6.2849102 47.2687 -1025.09
5.3639202 46.981701 -1024.67
4.67349 47.0938 -1024.98
3.96033 47.173 -1025.2
0 0 0
1.89575 46.673901 -1024.4
0.91021699 46.540199 -1024.2
0 0 0
-0.783997 46.708401 -1024.61
-2.28687 45.941299 -1023.46
-3.15994 46.013302 -1023.54
-4.3703599 45.8708 -1023.29
-5.9705801 45.2374 -1022.2
-7.1945801 45.216 -1022.25
-9.0170298 44.458698 -1021.11
46.726101 33.072601 -991.22803
0 0 0
0 0 0
0 0 0
0 0 0
46.499901 34.7369 -994.61499
46.451099 35.112999 -995.35901
46.319698 35.3325 -995.88098
46.208302 35.6064 -996.52301
46.123699 35.939499 -997.17902
45.920399 36.126301 -997.58197
0 0 0
45.666801 36.750099 -998.849
45.4846 36.987 -999.33801
45.3657 37.272999 -999.93701
45.230999 37.617298 -1000.6
44.997299 37.768002 -1000.95
44.780701 37.950199 -1001.4
44.5919 38.219101 -1001.95
44.431999 38.540501 -1002.57
0 0 0
43.997898 38.994999 -1003.55
43.822399 39.286701 -1004.15
43.57 39.4967 -1004.57
43.3736 39.7626 -1005.13
0 0 0
42.870201 40.181499 -1006.01
0 0 0
0 0 0
42.1166 40.868301 -1007.47
41.781502 41.007702 -1007.78
0 0 0
41.215801 41.391399 -1008.6
0 0 0
40.671299 41.877701 -1009.56
40.261799 41.907299 -1009.69
0 0 0
39.655701 42.431499 -1010.7
39.3647 42.8242 -1011.39
38.662998 42.508801 -1010.9
38.318199 42.7981 -1011.49
37.4818 43.0616 -1012.12
36.729 42.8382 -1011.74
36.450001 42.993198 -1012.16
35.520199 42.469299 -1011.35
35.6064 43.445099 -1013.16
34.904202 43.4594 -1013.18
33.9384 43.4231 -1013.36
30.0895 44.140499 -1015.35
30.0891 45.054001 -1016.98
28.5627 44.589199 -1016.19
27.1385 43.983501 -1015.33
26.438601 43.921799 -1015.25
26.0411 43.9217 -1015.42
26.076 44.829498 -1017.07
23.802099 43.9897 -1015.84
16.331699 45.542099 -1019.55
15.7069 46.254101 -1020.96
14.5534 45.490398 -1019.58
14.1327 45.694801 -1020.08
14.1048 46.549801 -1021.55
13.6436 46.617199 -1021.77
11.6127 45.211102 -1019.58
12.1831 46.892399 -1022.52
0 0 0
11.1009 47.189201 -1023.14
9.1841698 46.698502 -1022.52
6.0680799 47.433601 -1024.0601
5.7450299 47.867599 -1024.9399
4.9426298 47.505402 -1024.47
4.4712501 47.8484 -1025.08
3.4863901 47.474701 -1024.47
2.67291 47.378101 -1024.46
1.8255301 47.375999 -1024.53
0.76919597 47.033199 -1023.95
-0.42578101 46.594002 -1023.22
-0.94049102 47.040798 -1024.1801
-2.4165599 46.2752 -1022.91
-3.5318899 46.144299 -1022.65
-4.7966599 45.869999 -1022.29
-5.7005901 46.123199 -1022.74
-7.7978501 44.9897 -1020.83
-9.3848896 44.6717 -1020.38
0 0 0
0 0 0
46.555901 33.777599 -991.49799
0 0 0
46.4688 34.440601 -992.82001
0 0 0
46.344501 35.079498 -994.12903
46.294498 35.436001 -994.86401
46.243801 35.816502 -995.64301
46.133202 36.109798 -996.25702
46.0009 36.363201 -996.797
45.8787 36.655102 -997.39697
45.737801 36.947601 -997.97998
45.5681 37.191399 -998.51599
45.458 37.556801 -999.216
0 0 0
45.1078 37.967499 -1000.17
44.905499 38.197601 -1000.61
44.753899 38.499298 -1001.26
44.596298 38.836899 -1001.92
44.369801 39.049301 -1002.36
44.1558 39.292999 -1002.86
43.948299 39.548599 -1003.38
43.716599 39.751801 -1003.82
43.503899 40.030899 -1004.37
43.256001 40.205399 -1004.78
42.995499 40.412201 -1005.22
42.7169 40.654701 -1005.69
0 0 0
42.258598 41.356098 -1006.95
41.884602 41.533901 -1007.25
41.490898 41.708199 -1007.62
41.245098 42.0191 -1008.36
38.4781 41.761002 -1008.23
37.9118 41.627899 -1008.19
37.428699 41.663502 -1008.32
36.894199 42.6273 -1010.19
36.348499 42.6078 -1010.23
35.695099 42.529099 -1010.17
34.8741 42.073898 -1009.47
34.459801 43.083 -1011.4
33.252899 42.1045 -1009.74
32.853199 42.333302 -1010.22
32.1553 42.154701 -1009.94
30.697901 42.4795 -1010.76
29.2948 42.845001 -1011.6
29.2225 43.702099 -1013.13
28.7101 43.533901 -1013.06
26.881001 43.3974 -1012.94
26.261101 43.3839 -1013
25.813999 43.427898 -1013.19
25.4951 43.985001 -1014.18
24.652201 43.378201 -1013.2
23.9217 43.1866 -1012.92
23.6376 43.673599 -1013.8
23.474899 44.235699 -1014.87
21.9618 44.6665 -1015.83
20.8916 43.667801 -1014.21
20.4102 43.713001 -1014.29
20.094101 44.379501 -1015.23
16.139 43.6521 -1014.56
16.3347 44.7318 -1016.58
14.298 44.915798 -1017.33
14.2812 45.7346 -1018.74
11.6307 45.1754 -1018.08
10.8057 44.7071 -1017.38
10.3888 45.094299 -1018.1
10.2571 45.853802 -1019.42
9.8384705 46.023201 -1019.79
8.7957201 46.1712 -1020.24
6.3074002 45.803299 -1019.89
6.0915499 46.323898 -1020.83
2.29916 47.5392 -1023.46
1.38504 47.202202 -1022.96
0.120361 47.4417 -1023.46
-0.95410198 46.811199 -1022.52
-1.32239 47.460098 -1023.72
0 0 0
-3.41995 47.002102 -1022.99
-4.7523799 46.708302 -1022.44
-6.3466501 46.064201 -1021.44
-7.4275498 46.195801 -1021.77
-9.4486704 45.493301 -1020.54
46.41 33.456699 -989.56403
46.431499 33.861301 -990.36798
46.431599 34.233898 -991.14502
46.4058 34.5667 -991.84698
0 0 0
0 0 0
46.251099 35.5714 -993.883
46.198898 35.903198 -994.55499
46.112598 36.216801 -995.21198
46.036499 36.5905 -995.97302
45.874401 36.8004 -996.41101
45.791401 37.156601 -997.14001
45.6861 37.445499 -997.79199
0 0 0
45.389599 38.035999 -998.92401
45.2145 38.248001 -999.409
45.027901 38.480999 -999.86102
0 0 0
44.6436 39.0238 -1000.96
44.449501 39.3153 -1001.53
44.221199 39.537201 -1002.04
0 0 0
43.7603 40.1436 -1003.12
43.6092 40.620399 -1003.94
43.466999 41.0979 -1004.9
42.307701 40.740299 -1004.46
41.957001 40.921001 -1004.95
41.416401 40.962101 -1005.1
0 0 0
39.792099 40.0168 -1003.6
40.266998 41.8232 -1006.8
39.162399 40.9338 -1005.35
0 0 0
33.623699 41.670399 -1007.47
32.8535 41.375702 -1007.03
32.663799 41.705399 -1007.74
30.6945 41.341801 -1007.31
29.804001 40.9016 -1006.62
29.8312 41.972099 -1008.45
26.580799 43.133499 -1010.98
20.623699 43.5844 -1012.57
0 0 0
14.4633 44.603699 -1015.12
10.9884 44.3578 -1015.15
11.026 45.212299 -1016.72
10.5575 45.5742 -1017.32
9.1382103 45.806702 -1018.04
8.1635103 45.240002 -1017.16
8.0628996 45.841499 -1018.28
5.3987699 45.285198 -1017.62
5.4128098 46.189899 -1019.23
4.37292 45.491402 -1018.09
4.7868299 46.815399 -1020.59
3.1702299 45.4086 -1018.16
2.9263 46.721802 -1020.59
2.09689 46.377499 -1020.03
-1.60532 46.8522 -1021.37
-2.4307599 47.6147 -1022.69
-3.1843901 47.4179 -1022.46
-3.58041 48.1395 -1023.8
-6.3955402 46.8685 -1021.45
-7.9836702 46.144798 -1020.51
-10.0358 45.5005 -1019.37
-11.6166 46.028301 -1020.32
0 0 0
46.2981 34.672199 -990.75
46.2999 35.094101 -991.52698
46.260799 35.388901 -992.211
46.1908 35.6432 -992.82501
46.158199 36.055302 -993.61401
46.071701 36.3848 -994.22601
45.969002 36.654202 -994.784
0 0 0
45.764702 37.261398 -996.05798
45.625702 37.527901 -996.61798
45.5527 37.927101 -997.414
45.438702 38.2924 -998.10699
45.282501 38.591499 -998.70898
45.054001 38.799 -999.16901
44.845699 39.097801 -999.66998
44.594002 39.338799 -1000.1
44.3578 39.667198 -1000.74
44.1012 40.072601 -1001.55
43.163399 40.096401 -1001.88
42.639198 40.020599 -1001.83
41.665501 39.414001 -1000.79
41.487301 39.951401 -1001.86
41.130699 40.157299 -1002.32
40.252602 39.6703 -1001.5
39.974899 40.099201 -1002.36
39.756599 40.5662 -1003.3
0 0 0
38.684601 40.735401 -1003.7
37.923199 40.485001 -1003.31
37.4543 40.367001 -1003.3
35.148701 40.433998 -1003.59
32.215199 40.223999 -1003.55
32.4571 41.475201 -1005.87
0 0 0
30.0151 42.0145 -1007.18
29.523899 42.2584 -1007.61
28.953501 42.109798 -1007.49
27.788799 41.188099 -1005.92
27.2726 42.296001 -1007.93
26.721399 42.181999 -1007.91
25.340799 42.0634 -1007.71
25.1602 42.606098 -1008.78
23.4196 41.592201 -1007.17
22.669399 42.5014 -1008.75
22.267401 42.463799 -1008.9
21.325399 42.727001 -1009.42
20.8097 42.9823 -1009.8
14.5539 44.629601 -1013.72
14.3332 45.1385 -1014.71
13.997 45.490398 -1015.4
10.5735 42.915501 -1011.21
10.6486 43.964901 -1013.02
10.0408 43.883499 -1012.98
9.1268301 43.1255 -1011.79
8.2568102 42.878899 -1011.31
5.4011798 45.336201 -1016.27
3.9948101 44.849201 -1015.53
3.2925401 45.606998 -1017.01
2.20538 45.6535 -1017.28
1.4426 45.452301 -1016.9
0.43353301 45.029499 -1016.22
-0.0239258 46.6632 -1019.32
-1.2658401 45.697701 -1017.73
-2.0230701 45.403999 -1017.31
-2.01755 46.465302 -1019.13
-3.8120699 46.305801 -1019.13
-6.47647 45.823799 -1018.75
-7.9528499 45.773998 -1018.69
-8.3780203 46.7939 -1020.52
46.206501 34.7215 -989.77197
0 0 0
46.223801 35.552299 -991.34698
46.185398 35.8736 -992.00098
0 0 0
0 0 0
46.016701 36.840801 -994.02802
45.908501 37.142101 -994.62701
0 0 0
45.692799 37.834999 -995.995
45.527401 38.160099 -996.59698
0 0 0
0 0 0
44.778301 38.9081 -998.08698
44.3353 38.972401 -998.30298
42.623699 39.425701 -999.56897
41.637001 38.831299 -998.52698
41.7911 39.9132 -1000.49
0 0 0
40.065498 39.743599 -1000.44
38.1754 38.497002 -998.38898
0 0 0
0 0 0
36.3857 40.214802 -1001.76
35.8508 40.355301 -1002.07
35.148899 40.054401 -1001.62
34.558102 39.8246 -1001.38
33.983101 39.9897 -1001.62
33.9375 41.037201 -1003.4
31.080999 40.700001 -1003.33
28.542801 41.007801 -1004.31
27.6014 40.699402 -1003.67
0 0 0
26.364201 40.688499 -1003.77
26.4056 41.3615 -1005.09
25.1422 40.577801 -1003.67
25.2335 41.416901 -1005.31
24.7199 41.6003 -1005.69
23.7099 40.902 -1004.47
23.088699 40.846901 -1004.49
23.0998 41.818401 -1006.26
22.5089 41.9995 -1006.56
21.055799 41.5093 -1005.87
20.6598 42.596401 -1007.86
19.317301 41.2397 -1005.61
19.3536 42.150299 -1007.25
18.164 41.637501 -1006.8
12.9967 43.660198 -1010.9
11.9845 42.8834 -1009.63
11.8284 43.640099 -1010.95
11.212 43.650299 -1011.09
10.4569 44.2672 -1012.3
9.1518602 43.1577 -1010.46
6.5215502 43.402302 -1011.27
5.70929 44.665199 -1013.68
4.7266202 43.981098 -1012.59
4.6127 44.930901 -1014.19
2.3866 44.148998 -1013.17
2.7488999 45.4067 -1015.38
1.2742 44.915798 -1014.69
1.12842 45.538502 -1015.83
0.54296899 45.531898 -1015.91
-0.663513 44.744099 -1014.58
0 0 0
-1.21671 45.664001 -1016.34
-2.0639999 45.1959 -1015.56
-2.06653 46.094002 -1017.17
-3.09778 45.449501 -1016.13
-4.65131 45.819199 -1016.98
-6.5893898 45.514599 -1016.72
-6.7862902 46.8568 -1019.16
-9.5570402 46.604698 -1019.04
-10.9264 46.276299 -1018.51
46.138699 35.598499 -990.367
0 0 0
0 0 0
0 0 0
0 0 0
45.798698 37.2742 -993.64203
45.745602 37.7369 -994.54999
45.6549 38.212002 -995.42902
45.120701 38.086601 -995.27197
45.0093 38.737 -996.48297
43.0075 38.563999 -996.69
41.066799 39.071999 -997.87201
39.882401 39.037601 -997.93103
39.3993 39.180401 -998.23999
37.9832 38.602699 -997.375
37.426601 38.6852 -997.53601
37.184399 39.275799 -998.63397
0 0 0
36.096699 39.979198 -1000.18
34.9445 39.1759 -998.76599
34.369999 39.277302 -998.979
33.461498 39.6297 -999.755
33.181 39.8936 -1000.34
30.143 40.6651 -1002.01
28.654499 40.191799 -1001.33
27.323099 40.652 -1002.38
26.8727 40.836899 -1002.78
24.8866 39.576302 -1000.7
25.718 41.834702 -1004.69
24.2013 40.282001 -1002.1
24.2682 41.2505 -1003.88
0 0 0
22.677099 40.7495 -1003.08
22.647301 41.826801 -1004.91
21.477501 40.856602 -1003.31
20.809299 40.762402 -1003.25
20.0707 41.194099 -1004.29
19.3048 40.962799 -1003.81
17.704399 41.189602 -1004.88
16.9524 40.735901 -1004.25
16.5781 40.952702 -1004.84
16.656099 41.994999 -1006.6
16.1056 42.0975 -1006.74
15.4766 41.948399 -1006.64
14.4675 42.210701 -1007.44
14.0288 42.921101 -1008.51
13.0738 42.9897 -1008.25
13.1987 43.773899 -1009.86
11.4963 42.838902 -1008.35
10.6601 42.389999 -1007.64
10.3546 42.808399 -1008.34
9.4917297 42.252701 -1007.52
9.7330904 43.6702 -1009.97
8.5074797 42.660599 -1008.34
8.0873098 42.8466 -1008.76
7.73627 43.2864 -1009.55
7.3273902 43.3694 -1009.86
5.3895302 43.078499 -1009.52
2.01633 44.821201 -1013.12
1.11981 44.341301 -1012.43
0.207306 43.861599 -1011.63
-0.0789795 44.264702 -1012.47
-1.29617 44.1297 -1012.34
-2.3512299 44.4561 -1013.02
-2.8159499 44.7108 -1013.49
-3.2195401 45.021301 -1014.06
-3.8538499 44.891899 -1013.93
-4.34268 45.0532 -1014.25
-7.3181801 44.8867 -1014.44
-7.6782198 45.242199 -1015.08
-10.5193 45.2304 -1015.46
0 0 0
0 0 0
45.968102 36.392601 -990.83398
45.8666 36.689301 -991.40002
45.791 37.119499 -992.18799
45.719398 37.663601 -993.16498
45.495701 38.110401 -994.06201
44.606899 37.2724 -992.77502
42.772301 38.5835 -995.52197
41.93 38.2826 -994.97101
0 0 0
38.819901 39.5737 -997.72101
37.6875 38.714199 -996.28699
37.470699 39.211899 -997.25598
36.548302 38.562698 -996.21503
36.1707 38.813499 -996.72699
35.512699 38.835701 -996.74402
35.461201 39.449299 -998.01599
33.945301 39.032902 -997.31702
33.712002 39.559101 -998.30798
32.476299 38.248699 -996.18298
32.051399 38.572701 -996.81299
0 0 0
30.4575 39.560398 -998.78198
29.263399 39.571098 -998.92902
28.492399 40.2118 -1000.15
27.256201 40.062302 -1000.07
0 0 0
26.442699 40.4692 -1000.94
25.6758 40.502998 -1000.95
25.2512 40.556 -1001.19
23.553699 40.727699 -1001.65
22.7766 40.390301 -1001.16
22.5811 40.854099 -1002.07
21.210899 40.672298 -1001.93
19.782801 40.490799 -1001.57
18.806 39.6954 -1000.39
18.6731 40.319302 -1001.5
18.1194 41.110901 -1003.02
16.728201 42.376301 -1005.71
16.3281 42.479401 -1006
15.8777 42.618 -1006.27
15.4407 42.812099 -1006.67
0 0 0
0 0 0
8.7500896 42.492401 -1006.79
7.7510099 41.738899 -1005.62
6.8997202 42.4133 -1006.84
6.8613901 43.310001 -1008.42
5.8582802 42.659302 -1007.36
3.72348 42.732498 -1007.81
2.60867 43.713402 -1009.76
1.1171 44.021198 -1010.58
0.571289 44.1385 -1010.74
-1.41589 43.128799 -1009.05
-1.32288 44.933899 -1012.36
-2.89536 43.447399 -1009.86
-3.7291901 43.851101 -1010.78
-3.5857201 44.989101 -1012.77
-5.0929899 43.625999 -1010.48
-4.7997699 44.915401 -1012.82
-8.3461905 43.977798 -1011.56
-8.2865295 44.823399 -1013.13
-9.5619802 45.595299 -1014.7
-11.6003 45.203201 -1014.22
45.643398 36.344101 -989.55902
45.381302 36.519001 -989.94501
45.218899 36.914799 -990.73297
42.2687 37.3615 -992.01898
41.782501 37.5093 -992.336
40.899399 36.956501 -991.44897
0 0 0
39.556702 37.4016 -992.47101
38.662498 38.650101 -994.89099
0 0 0
36.801998 37.5681 -993.08002
36.529701 38.0485 -993.97601
35.821602 37.830601 -993.68903
33.557999 38.685299 -995.53302
33.3605 39.3302 -996.68402
32.248901 38.5247 -995.35602
30.438 38.204601 -995.06799
29.6224 38.982498 -996.45502
29.4569 39.241699 -997.11102
28.005301 39.898499 -998.40002
26.793501 38.864399 -996.63702
25.8908 39.466599 -997.81897
0 0 0
24.1021 39.209202 -997.62
22.1059 38.986801 -997.28802
21.630199 39.005402 -997.52899
21.178699 39.2365 -997.935
19.8622 40.071701 -999.67499
18.783001 40.023998 -999.73102
17.903999 39.780102 -999.27301
17.743999 40.463799 -1000.58
16.073799 38.619801 -997.45697
16.319799 43.005901 -1005.87
15.869 43.1021 -1006.15
0 0 0
14.7957 43.305599 -1006.61
0 0 0
7.5408001 41.286201 -1003.47
5.164 41.264301 -1003.6
4.68332 42.5285 -1005.93
3.9551101 42.098099 -1005.32
3.30127 42.7658 -1006.59
2.6194501 42.566101 -1006.32
1.7803299 42.0425 -1005.54
1.3157001 42.340099 -1006.12
0.78591901 42.217999 -1006.06
0.81655902 43.377701 -1008.1
0.119293 43.1744 -1007.8
-0.95172101 42.444901 -1006.61
-0.78027302 43.792801 -1008.95
-1.57068 43.305599 -1008.17
0 0 0
-4.2069101 42.9006 -1007.8
-4.9930701 43.505402 -1008.96
-5.1113601 44.177502 -1010.15
-7.6416001 43.826302 -1009.93
-9.0770597 44.459 -1011.15
-10.8301 43.519699 -1009.73
0 0 0
45.442699 35.244598 -986.10699
45.524799 35.8783 -987.26099
45.403599 36.207802 -987.95099
43.1423 35.848701 -987.72498
0 0 0
42.303398 36.375401 -988.65198
40.718102 36.457199 -989.08002
39.3507 36.938599 -990.12097
38.645 36.652802 -989.74298
37.845299 37.278198 -990.90601
36.605099 36.889702 -990.49103
35.966599 36.842701 -990.42297
36.021198 37.802898 -992.258
35.165199 37.2537 -991.375
34.4175 37.251999 -991.30902
33.816502 37.225201 -991.33502
33.888901 37.9729 -992.87598
32.730701 38.028599 -993.00598
31.731701 37.173401 -991.65802
0 0 0
30.7181 37.585602 -992.42401
27.356199 38.527302 -994.58398
25.695999 38.558899 -994.87799
24.277201 37.2411 -992.60699
24.4755 38.658298 -995.15198
24.087601 38.990398 -995.76099
22.9111 39.046001 -995.98297
22.153999 38.751499 -995.565
20.718901 38.499401 -995.14001
0 0 0
19.9431 38.8004 -995.97803
19.351299 38.654499 -995.82703
18.765699 38.9296 -996.29797
17.149 39.149502 -996.901
16.865601 39.537498 -997.61298
16.0065 39.090801 -996.992
16.0198 39.872501 -998.44501
16.7001 43.274601 -1005.22
16.384001 43.483601 -1005.79
15.9248 43.566502 -1006
15.5148 43.755199 -1006.41
14.8597 43.758999 -1006.54
14.1662 43.8195 -1006.64
6.9275198 41.201599 -1001.88
5.8804002 40.6035 -1000.86
5.3873601 40.568802 -1000.93
4.84689 41.3867 -1002.51
4.6765699 41.883099 -1003.52
3.3743899 41.799099 -1003.5
2.0678999 41.717201 -1003.42
1.30759 41.3708 -1002.94
-1.4984699 42.301102 -1005.02
-1.6787699 42.924 -1006.15
-2.5173299 42.5835 -1005.62
-3.0089099 42.844601 -1006.08
-3.7704201 42.533401 -1005.7
-4.3351102 43.290501 -1007.12
-5.8909602 43.602299 -1007.91
-7.3799701 43.367901 -1007.58
0 0 0
-9.1914997 44.0555 -1009.09
-10.446 43.2216 -1007.63
-10.6279 43.783901 -1008.7
-11.0525 44.063 -1009.27
-13.7031 42.752899 -1007.22
-14.1288 43.099499 -1007.9
44.957401 34.697601 -983.87402
44.908699 35.145302 -984.70801
44.826801 35.540199 -985.51599
44.077202 35.237301 -985.07098
43.8563 35.814899 -986.14099
0 0 0
0 0 0
42.101299 35.265202 -985.54602
0 0 0
41.111599 35.707901 -986.289
40.8629 36.265099 -987.39301
40.078499 35.8367 -986.70502
38.350399 36.769798 -988.66101
37.831501 36.798302 -988.79199
36.313 36.077301 -987.65698
35.2257 36.304298 -988.086
35.493301 37.455399 -990.30103
34.739201 37.033199 -989.66101
33.898201 36.961102 -989.44501
33.355099 37.038898 -989.68903
32.906101 37.101501 -989.91602
31.090599 37.638302 -991.23798
30.140699 37.211601 -990.42102
29.3228 36.5975 -989.534
27.7635 37.078701 -990.51801
27.527399 37.6646 -991.58301
25.3368 37.7342 -992.01202
22.740801 37.146999 -991.30701
22.463301 37.738998 -992.36902
21.1628 38.683498 -994.198
0 0 0
19.1999 38.261398 -993.65997
18.913099 38.726398 -994.51599
18.9655 39.741199 -996.42499
18.006001 38.975601 -995.185
16.0529 37.969398 -993.48297
0 0 0
15.9639 40.644199 -998.34698
0 0 0
0 0 0
16.0516 44.1325 -1006.04
15.5156 44.139801 -1006.13
14.927 44.237598 -1006.35
0 0 0
4.5096998 41.065701 -1000.41
4.2835102 41.332298 -1001.05
3.2729199 40.688999 -999.97498
2.6528299 40.694901 -999.98798
2.1173401 40.671001 -1000.12
0.28005999 40.581001 -1000.16
-0.20990001 41.588799 -1002.07
-0.44494599 42.171398 -1003.12
-5.3520799 41.676601 -1003
-5.9035001 42.733898 -1004.82
-7.1483202 41.742599 -1003.19
-7.0338101 42.755699 -1005.04
-7.15976 43.422298 -1006.28
-8.2224102 42.896301 -1005.35
-8.8076496 42.821201 -1005.41
-9.0506601 43.305901 -1006.28
-10.0277 42.923199 -1005.62
-10.0788 43.559601 -1006.89
-11.2833 42.679401 -1005.43
-11.6823 42.9011 -1005.9
-14.3751 43.3125 -1006.98
-14.7417 43.8134 -1007.89
-15.8651 43.138802 -1006.74
-15.7131 44.101299 -1008.5
0 0 0
0 0 0
-18.3454 44.663502 -1009.83
43.776001 34.327202 -982.06799
0 0 0
42.945801 35.9077 -984.94702
41.982399 34.928501 -983.453
41.072201 34.471699 -982.64301
40.899502 35.276299 -984.12598
38.6255 33.9842 -982.08801
37.992901 34.928299 -983.84802
37.529099 35.016602 -984.13599
37.426601 35.820499 -985.612
36.851601 35.8908 -985.77802
35.628899 35.783798 -985.716
35.211201 35.955799 -986.13
33.996101 36.585499 -987.49402
33.288399 36.394001 -987.21698
32.567402 36.322102 -987.06097
0 0 0
31.195299 35.919498 -986.55701
29.7789 35.405399 -985.85602
29.568501 36.892502 -988.55499
28.560101 36.3116 -987.51801
28.652599 37.236698 -989.24902
28.129999 37.3083 -989.46399
26.310101 36.264301 -987.828
26.0137 36.830002 -988.79498
25.441 36.864101 -988.94098
25.0214 37.041401 -989.367
24.4375 37.032398 -989.44897
23.3619 37.282001 -989.91302
18.3799 38.485901 -992.76001
17.633101 38.127201 -992.25098
16.571699 38.469501 -992.922
15.6216 37.929001 -992.06897
15.3846 38.741001 -993.43402
16.509501 44.451401 -1005.41
16.138201 44.655201 -1005.89
15.5524 44.6366 -1005.88
14.9931 44.763 -1006.19
14.3715 44.9221 -1006.52
2.80597 39.8573 -997.08197
3.38147 41.508099 -1000.03
1.4855 39.567501 -996.72803
1.552 40.4958 -998.43103
0.59768701 40.032299 -997.65503
0.55996698 40.7906 -999.099
-0.298096 40.455299 -998.62598
-0.64758301 40.690899 -999.12799
-1.6943099 40.034599 -998.047
-2.1666 40.269199 -998.48901
-2.1374199 41.3386 -1000.39
-3.5950899 40.8344 -999.62299
-4.5251198 42.009201 -1001.92
-6.3559899 40.3405 -998.99799
-7.2313199 40.842499 -1000.05
-9.8020601 42.044399 -1002.65
-12.1917 42.221298 -1003.19
-13.1628 41.593498 -1002.2
-12.8271 42.9879 -1004.67
-13.7208 42.6819 -1004.21
-14.5411 42.3634 -1003.69
0 0 0
-15.3645 42.873199 -1004.74
-15.5812 43.310501 -1005.59
-16.5604 42.729599 -1004.69
-17.0844 42.802399 -1004.9
-17.6642 43.161301 -1005.49
-17.538401 44.09 -1007.22
-19.319201 43.258598 -1005.92
-19.860201 43.298599 -1006.13
43.467999 34.573601 -981.06
42.870201 34.3004 -980.74103
41.993698 33.782299 -979.88501
41.285599 33.631302 -979.63599
40.665798 34.339699 -981.10602
40.493301 34.969601 -982.35901
38.863602 33.365898 -979.422
38.733799 34.200001 -980.95502
37.782501 33.435101 -979.69897
37.331902 34.3978 -981.604
36.375801 34.743401 -982.33002
34.205002 35.997002 -984.88202
31.9485 34.956799 -983.23199
31.8964 35.7812 -984.74298
30.912399 36.118 -985.492
27.124399 36.512402 -986.70001
26.5207 36.500702 -986.698
24.837099 36.573399 -986.992
23.556299 36.551998 -987.04401
22.9671 36.472 -987.06799
22.711201 36.832298 -987.79999
21.078699 37.164398 -988.53601
19.446301 36.504002 -987.48798
18.8356 37.347599 -989.08698
16.3239 38.747299 -992.04199
15.0534 37.682999 -990.27399
15.0088 38.557301 -991.84399
16.5259 44.963902 -1005.09
16.0578 45.112099 -1005.4
15.7236 45.365101 -1006.09
15.1414 45.500401 -1006.34
14.4625 45.587799 -1006.54
0.97427398 40.631901 -997.14697
-0.40423599 40.181198 -996.57001
-2.42923 40.584301 -997.63599
-3.13779 40.534801 -997.617
-3.96561 40.284302 -997.15698
-4.05585 41.012501 -998.55402
-5.1652799 40.4916 -997.54498
-4.9825401 41.2845 -999.164
-7.3101802 40.660599 -998.21802
-7.6331801 40.987499 -998.88098
-9.20471 41.388199 -999.78497
