# .PCD v0.7 - Point Cloud Data file format
VERSION 0.7
FIELDS x y z
SIZE 4 4 4
TYPE F F F
COUNT 1 1 1
WIDTH 1590
HEIGHT 1
VIEWPOINT 0 0 0 1 0 0 0
POINTS 1590
DATA ascii
-35.547199 -41.557301 -1020.25
-35.563499 -41.599201 -1018.49
-35.575298 -41.587002 -1017.89
-36.151402 -41.586102 -1016.57
-35.9603 -41.595299 -1015.53
-36.148102 -41.617298 -1013.38
-36.326199 -41.777 -1011.86
-36.321201 -41.850201 -1010.58
-36.1106 -41.798 -1009.65
-36.168301 -41.873402 -1008.34
-35.979198 -42.1758 -1006.85
-35.736698 -42.3666 -1003.95
-35.4305 -42.502201 -1002.82
-34.6987 -42.905399 -999.57202
-33.726898 -43.327599 -997.01501
-32.719299 -43.516399 -992.85797
-32.101601 -44.035 -991.41803
-22.5854 -47.030701 -979.59998
-34.717899 -41.087399 -1022.9
-34.9006 -41.057899 -1022.11
-35.301102 -40.994099 -1020.5
-35.434299 -40.986401 -1019.78
-35.4011 -41.1506 -1019.32
-35.645599 -41.001499 -1018.28
-35.906601 -41.0117 -1016.13
-35.980598 -41.017399 -1015.43
-36.024502 -41.027802 -1014.75
-36.237 -41.091599 -1011.9
-36.261002 -41.2701 -1011.08
-36.232201 -41.188999 -1009.33
-36.390099 -41.3582 -1008.53
-36.1493 -41.465099 -1007.95
-35.09 -41.875401 -1001.96
-33.759701 -42.752701 -996.85797
-33.032799 -43.101101 -993.63599
-29.3169 -44.559799 -986.80701
-25.064301 -45.6357 -982.21399
-35.031799 -40.436401 -1021.81
-35.575699 -40.437401 -1018.93
-35.694 -40.443699 -1018.14
-35.775101 -40.4482 -1017.42
-36.176498 -40.580299 -1011.26
-36.142502 -40.598 -1010.67
-36.075802 -40.819801 -1006.74
-35.823101 -40.942299 -1005.76
-35.653801 -41.072201 -1003.29
-35.2272 -41.232498 -1002.4
-34.539799 -41.599098 -999.00897
-34.0797 -42.096199 -996.67603
-33.632702 -42.2943 -994.53198
-35.0103 -39.853901 -1021.78
-35.441601 -39.811199 -1020.24
-35.6301 -39.795502 -1019.41
-35.8083 -39.799801 -1017.89
-35.9011 -39.817501 -1017.16
-36.0751 -39.869801 -1014.49
-36.1716 -39.877701 -1013.72
-36.275501 -39.882702 -1012.93
-36.487099 -40.003399 -1012.03
-36.1689 -40.0266 -1010.55
-36.348099 -40.204498 -1008.86
-36.368 -40.237 -1008.23
-36.0215 -40.223301 -1006.74
-36.3186 -40.3596 -1005.79
-36.0952 -40.474701 -1005.23
-35.647099 -40.513901 -1003.18
-35.3564 -40.869701 -1001.84
-33.6931 -41.651798 -995.48798
-33.554401 -41.734901 -994.88898
-30.7948 -42.299999 -989.05499
-23.468201 -45.0816 -979.90802
-35.7733 -39.153198 -1019.11
-36.006001 -39.189999 -1017.6
-35.944199 -39.222301 -1017.09
-36.264702 -39.337399 -1012.23
-36.613602 -39.557301 -1008.65
-35.727901 -39.851101 -1004.29
-35.491199 -40.2826 -1001.67
-35.174702 -40.437698 -1000.6
-34.701401 -40.6576 -998.99103
-34.238602 -40.5695 -997.77399
-26.0616 -43.630199 -982.31702
-25.557899 -43.766998 -982.19098
-23.196199 -44.6054 -979.29901
-22.553801 -44.657799 -978.797
-35.953999 -38.622002 -1019.87
-36.107101 -38.585098 -1018.05
-36.2206 -38.5914 -1017.33
-36.294601 -38.579601 -1016.57
-36.5452 -38.835098 -1012.32
-36.554298 -38.900398 -1011.04
-36.2104 -39.259499 -1006.12
-36.211899 -39.313099 -1004.9
-36.0009 -39.43 -1004.34
-35.860401 -39.287998 -1003.36
-35.507 -39.7099 -1001.52
-34.819901 -40.050098 -998.81897
-34.488899 -39.958099 -997.27899
-33.921398 -40.202702 -995.35901
-33.563801 -40.6959 -993.33801
-32.070999 -40.704899 -991.02899
-26.018999 -43.055 -982.30798
-21.8494 -44.4869 -977.61298
-10.9695 -47.902 -971.414
-36.280998 -37.985401 -1017.22
-36.327099 -38.140202 -1013.81
-36.3535 -38.5396 -1008.98
-36.1549 -38.4823 -1006.93
-35.826199 -38.707901 -1003.95
-35.854198 -38.741901 -1003.24
-35.461201 -38.914501 -1001.61
-34.876099 -39.185902 -999.56799
-34.485401 -39.432899 -996.44299
-33.665501 -40.128101 -993.18597
-31.9559 -40.4259 -990.78003
-31.583401 -40.883701 -990.15198
-30.811501 -40.8437 -988.37598
-25.988199 -42.539299 -982.27002
-22.5301 -43.7192 -978.25598
-21.8571 -43.794998 -977.76703
-21.5497 -44.0662 -977.039
-5.9686899 -48.891602 -969.35699
-36.3209 -37.422798 -1018.23
-36.401901 -37.430698 -1017.55
-36.534401 -37.4291 -1016.14
-36.5555 -37.457802 -1015.52
-36.4492 -37.6399 -1012.27
-36.804199 -37.825199 -1009.94
-36.037399 -38.330299 -1004.05
-35.067001 -38.603802 -999.92603
-34.543098 -38.950699 -995.78003
-33.59 -39.114399 -992.94501
-32.7686 -39.413898 -992.14099
-31.9783 -39.895802 -990.599
-26.214199 -41.819099 -982.229
-22.483601 -43.061199 -978.01099
-21.6973 -43.4492 -977.55902
-21.5693 -43.548401 -976.91101
-20.6626 -43.736698 -976.47101
-36.320301 -36.881802 -1018.17
-36.557301 -36.914001 -1016.08
-36.589802 -36.929501 -1015.42
-36.589199 -36.996601 -1013.94
-36.400299 -37.317699 -1008.39
-36.568298 -37.535599 -1005.64
-35.499699 -38.121399 -1001.11
-35.349098 -38.210701 -1000.01
-34.889599 -38.150398 -998.586
-34.851601 -38.236401 -997.328
-34.783699 -38.319099 -996.12799
-34.604698 -38.200401 -995.30499
-31.9506 -39.3806 -990.56201
-30.792999 -39.819801 -988.263
-29.312 -40.350101 -986.005
-28.669201 -40.580299 -985.20099
-28.3878 -40.671101 -984.73199
-26.8337 -41.192299 -982.646
-21.314501 -43.082298 -977.08398
-20.421 -43.402 -975.62299
-19.996201 -43.542599 -975.20697
-5.4580698 -48.005001 -968.646
-36.292301 -36.318802 -1018.66
-36.3773 -36.334499 -1017.98
-36.5289 -36.339699 -1016.61
-36.508499 -36.464199 -1013.9
-36.507401 -36.4897 -1013.19
-36.797001 -36.607101 -1009.14
-36.439701 -36.762299 -1008.2
-36.196098 -36.978802 -1005.18
-35.9492 -37.124699 -1003.44
-36.036999 -37.3353 -1002.6
-35.149101 -37.5508 -998.25098
-35.211498 -37.608898 -997.53601
-34.548401 -37.927502 -994.91998
-34.017502 -38.114101 -994.15698
-28.878099 -39.809601 -985.25299
-20.6777 -42.7696 -976.052
-19.8423 -43.082901 -975.39301
-36.2407 -35.7691 -1018.62
-36.453999 -35.9067 -1014.55
-36.678501 -35.893299 -1012.88
-36.968601 -35.936798 -1011.46
-36.999001 -35.957298 -1010.8
-36.650799 -36.341499 -1008.29
-36.013199 -36.780201 -1003.65
-36.0746 -36.810699 -1002.45
-34.946701 -36.905399 -996.646
-35.015099 -37.191399 -996.36401
-34.571899 -37.112598 -995.04303
-34.121899 -37.584301 -993.86499
-29.4438 -39.059299 -985.99701
-20.661501 -42.079201 -975.80701
-19.851299 -42.521599 -975.23401
-9.6273804 -45.672501 -969.71503
-36.467201 -35.205299 -1017.62
-37.022598 -35.3521 -1011.35
-36.391499 -35.7267 -1006.75
-36.335999 -36.068501 -1003.42
-35.9659 -36.409 -1000.42
-34.9291 -36.6441 -996.35699
-32.785599 -37.496399 -991.474
-30.0497 -38.4627 -987.138
-29.458099 -38.7122 -985.46698
-26.854601 -39.6106 -982.29498
-19.5847 -42.063599 -974.54797
-18.4492 -42.4189 -974.14899
-36.151402 -34.641102 -1019.06
-36.297501 -34.6423 -1018.35
-36.7631 -34.637901 -1017.11
-36.522499 -34.688499 -1016.25
-36.9272 -34.741699 -1012.65
-37.199799 -34.9865 -1009.06
-36.3647 -35.245701 -1005.99
-36.2626 -35.270901 -1005.46
-36.3074 -35.273899 -1004.7
-36.419102 -35.3545 -1002.68
-36.7402 -35.534901 -1001.86
-36.355598 -35.518002 -1000.81
-35.807098 -35.7318 -998.74103
-25.584 -39.330799 -980.33099
-23.6793 -40.137901 -978.65802
-19.3575 -41.5527 -974.69397
-36.048302 -34.085701 -1019.62
-36.258301 -34.0648 -1018.3
-36.4282 -34.096901 -1017.49
-36.9314 -34.1717 -1012.53
-37.147499 -34.231602 -1012.17
-37.0233 -34.307899 -1009.15
-36.607201 -34.6371 -1004.39
-37.019001 -34.792801 -1003.41
-36.707802 -34.720501 -1002.98
-35.970501 -35.077599 -999.12903
-34.850498 -35.796398 -996.43903
-33.686501 -36.019501 -992.44702
-32.904099 -36.444 -990.51599
-32.2672 -36.6703 -989.95001
-31.8561 -36.498402 -988.60699
-29.509399 -37.3643 -985.591
-26.178301 -38.7285 -981.34302
-19.196199 -40.871399 -974.39398
-35.766602 -33.5047 -1021.06
-36.0527 -33.496399 -1019.45
-36.287998 -33.5215 -1018.12
-37.085098 -33.6516 -1012.72
-37.065899 -33.5741 -1012.16
-36.690498 -33.928299 -1006.59
-36.828602 -34.116402 -1005.91
-36.546101 -34.254398 -1001.06
-35.906601 -34.827301 -998.76001
-33.7141 -35.2701 -991.98901
-32.1255 -35.976002 -989.76801
-35.557301 -32.971001 -1021.73
-35.930199 -32.913898 -1021.21
-36.137501 -32.937901 -1018.72
-36.2915 -32.9235 -1017.96
-36.912201 -33.016201 -1012.28
-37.461399 -33.1357 -1009.83
-36.807999 -33.334099 -1007.1
-36.889599 -33.357201 -1005.8
-37.0009 -33.3722 -1005.08
-37.072498 -33.403198 -1004.34
-37.159401 -33.5923 -1003.67
-35.1036 -34.340599 -996.20099
-35.0173 -34.374599 -995.61298
-34.126499 -34.7938 -992.526
-30.7623 -35.9925 -987.31403
-27.9699 -36.814499 -983.19098
-26.5184 -37.319801 -981.13098
-19.631901 -39.748299 -974.73901
-19.227501 -39.8713 -974.41101
-18.847 -40.0126 -974.07397
-16.972799 -40.638401 -972.66998
-15.9856 -40.919701 -972.14697
-34.944302 -32.440498 -1024.03
-35.167301 -32.432701 -1023.19
-35.472698 -32.366501 -1022.69
-35.820099 -32.393398 -1020.08
-36.0219 -32.389801 -1019.27
-36.2687 -32.3773 -1017.83
-36.955101 -32.4594 -1012.68
-37.240601 -32.520302 -1011.75
-37.2925 -32.566399 -1011.05
-36.909199 -32.691101 -1008.29
-36.777199 -32.771 -1007.05
-37.173599 -32.965401 -1005.42
-37.121601 -33.0238 -1004.18
-36.8228 -32.969501 -1002.45
-35.9692 -33.397598 -998.73999
-35.935799 -33.219299 -997.396
-31.4009 -35.183498 -988.72699
-29.7122 -36.180199 -984.84497
-27.014299 -36.765499 -981.56702
-18.518499 -39.5672 -973.453
-17.027 -39.921398 -972.36798
-15.9978 -40.342999 -971.992
-14.9865 -40.6474 -971.41901
-14.4678 -40.8279 -971.11603
-34.935001 -31.898399 -1023.87
-35.328201 -31.8806 -1022.29
-35.676399 -31.862301 -1021.77
-35.890099 -31.8815 -1020.27
-36.002701 -31.8437 -1019.17
-36.3806 -31.809299 -1018.71
-36.721001 -31.882401 -1014.74
-37.2593 -32.017502 -1011.64
-37.126598 -31.944799 -1011.15
-37.162998 -31.988199 -1010.49
-37.121498 -32.251301 -1008.42
-36.9189 -32.294601 -1005.57
-36.828098 -32.557201 -1004.16
-36.771801 -32.423 -1003.72
-36.3969 -32.993198 -998.95203
-34.105701 -33.7439 -992.29401
-31.520901 -34.462299 -988.21899
-30.2435 -35.118401 -986.16101
-26.5823 -36.277 -980.87701
-19.2715 -38.831799 -974.185
-15.8655 -39.856201 -971.992
-35.091599 -31.3892 -1023.02
-35.341301 -31.350201 -1022.12
-35.529099 -31.327 -1021.33
-36.019199 -31.302299 -1019.07
-36.126301 -31.308399 -1018.36
-36.3381 -31.306 -1017.48
-36.708099 -31.3325 -1016.34
-36.869801 -31.3925 -1012.56
-37.097301 -31.521601 -1009.04
-37.0676 -31.582399 -1008.43
-36.878502 -31.6415 -1007.26
-36.860298 -31.7104 -1006.16
-36.7794 -31.826099 -1004.95
-36.6049 -31.921101 -1003.79
-36.190899 -32.386002 -1001.21
-35.636902 -32.523102 -997.30402
-34.693401 -32.924099 -994.37
-34.280499 -33.169201 -992.72803
-32.343102 -33.6432 -988.96503
-27.052099 -35.729801 -981.30603
-26.372 -35.9841 -980.54199
-23.537399 -36.929001 -977.33698
-19.6945 -38.1315 -974.37799
-6.4405499 -42.161301 -967.70801
-34.305801 -30.933701 -1025.42
-35.913502 -30.7985 -1019.7
-36.428299 -30.7995 -1017.7
-36.533699 -30.7425 -1017.05
-36.8661 -31.0844 -1011.46
-37.0704 -30.9181 -1010.97
-36.889198 -31.216801 -1005.99
-36.109798 -31.691601 -1000.83
-35.442001 -32.015999 -998.211
-34.988201 -32.205002 -996.625
-34.900299 -32.267799 -995.91498
-34.870998 -32.603298 -995.26599
-28.542999 -34.681198 -983.36603
-24.540001 -36.0634 -978.55701
-22.679001 -36.681099 -976.64697
-19.7083 -37.628899 -974.27301
-36.1287 -30.214701 -1018.59
-36.525101 -30.225 -1016.38
-36.753799 -30.330601 -1013.57
-36.974201 -30.4077 -1012.72
-37.047199 -30.394899 -1010.86
-37.252602 -30.494499 -1009.96
-36.685101 -30.6506 -1007.27
-36.970901 -30.8181 -1006.32
-37.066399 -30.821301 -1005.67
-36.8549 -30.746099 -1004.54
-36.180401 -31.1849 -999.88202
-35.672901 -31.6852 -998.25702
-34.902901 -31.753799 -995.23999
-26.979 -34.7132 -981.19397
-24.0355 -35.744099 -977.42401
-34.877899 -29.758101 -1023.44
-35.155899 -29.721201 -1022.55
-35.454498 -29.6826 -1022.02
-35.824799 -29.6877 -1020.49
-35.954601 -29.712099 -1018.63
-36.169498 -29.6999 -1017.79
-36.454201 -29.7008 -1016.26
-36.796398 -29.826401 -1011.61
-36.897202 -29.878799 -1010.18
-37.039902 -29.9112 -1008.72
-36.662998 -30.1075 -1007.13
-36.305801 -30.5261 -1000.99
-35.898399 -30.7335 -999.47601
-35.7463 -31.0527 -998.10901
-35.260601 -31.032499 -996.73199
-35.183102 -31.4214 -994.901
-35.025299 -31.5224 -993.70203
-32.5289 -32.0928 -990.495
-23.934401 -35.1618 -977.401
-35.597801 -29.182501 -1020.06
-35.750999 -29.2309 -1018.74
-36.096802 -29.217899 -1017.13
-36.6091 -29.3403 -1011.66
-37.053398 -29.500999 -1008.6
-35.645199 -30.357599 -997.56201
-35.228901 -30.8001 -996.367
-35.297199 -30.7812 -995.29401
-35.188301 -30.871099 -994.76801
-34.507801 -30.9676 -992.58502
-32.6707 -31.8594 -990.05402
-27.9877 -33.284199 -982.091
-35.9697 -28.6567 -1017.07
-36.099701 -28.6558 -1016.3
-36.378101 -28.685801 -1014.09
-36.548199 -28.7857 -1011.55
-36.9506 -28.915501 -1009.16
-36.693401 -28.908501 -1008.14
-36.7509 -29.1359 -1003.66
-36.257198 -29.413601 -1000.78
-35.055199 -30.330601 -995.19397
-32.047501 -31.254601 -988.57397
-28.025801 -32.725101 -981.89001
-18.786301 -35.760601 -972.422
-13.9218 -37.2048 -970.00598
-36.392799 -28.143499 -1013.36
-36.569901 -28.171101 -1011.92
-36.623699 -28.1873 -1011.25
-36.704201 -28.3435 -1007.96
-36.837502 -28.489201 -1004.78
-36.6479 -28.632401 -1002.98
-36.372398 -28.8524 -1000.54
-36.294701 -28.896099 -999.93201
-35.817001 -29.091999 -998.55798
-35.728802 -29.152599 -997.93298
-35.907501 -29.3874 -997.10199
-33.0135 -30.2689 -990.96399
-29.9471 -31.4688 -984.26898
-28.7108 -31.908501 -982.57501
-24.9618 -33.163898 -978.30798
-35.0196 -27.4809 -1022.53
-34.977798 -27.503901 -1021.8
-36.5275 -27.798401 -1011.59
-37.044701 -27.778601 -1008.87
-36.737099 -27.770599 -1007.76
-37.113499 -27.950001 -1006.24
-35.898201 -28.8391 -996.97998
-34.778 -29.0242 -994.81
-32.937698 -29.7327 -990.97101
-31.746599 -30.228201 -987.93597
-31.544901 -30.301001 -987.43103
-15.0453 -35.744999 -970.27399
-8.8932505 -37.6077 -967.15601
-8.2592802 -37.8064 -966.94598
-34.798 -26.9543 -1022.49
-35.009899 -26.9526 -1021.36
-35.737701 -26.943199 -1018.04
-36.165298 -27.121099 -1014.93
-36.553799 -27.0576 -1012.26
-36.767502 -27.213301 -1007.59
-37.014702 -27.535801 -1004.21
-36.683998 -27.463499 -1003.29
-36.526901 -27.6343 -1001.48
-36.218899 -27.791901 -999.75098
-34.862999 -28.445101 -994.578
-33.9468 -28.819401 -992.41803
-31.520901 -29.768101 -987.35199
-29.8307 -30.483 -982.88898
-26.038799 -31.7078 -979.19
-22.8214 -32.694901 -975.53003
-5.1784101 -38.134899 -965.862
-35.770401 -26.4408 -1017.35
-36.588299 -26.587799 -1010.88
-36.695999 -26.7453 -1007.58
-36.956402 -26.7896 -1005.52
-36.1926 -27.518999 -1000.11
-36.455399 -27.4454 -999.47699
-35.3988 -27.9939 -995.73102
-35.3055 -28.078699 -994.64801
-33.6819 -28.1488 -992.26501
-33.196499 -28.589399 -991.13
-32.090099 -28.857 -988.414
-30.780701 -29.5495 -985.86499
-30.0966 -29.8332 -983.90198
-13.554 -35.082001 -968.88098
-5.2976699 -37.5737 -965.67401
-33.6772 -25.989799 -1025.8101
-35.209702 -25.9133 -1020.21
-35.846298 -25.867901 -1018.29
-36.834702 -26.356199 -1007.26
-37.281399 -26.3323 -1005.18
-36.621899 -26.416 -1003.84
-36.7155 -26.4375 -1003.02
-36.704201 -26.478901 -1002.34
-36.2659 -26.7251 -1000.2
-35.936001 -27.2055 -996.72803
-35.231602 -27.243401 -995.90698
-35.080399 -27.3573 -994.66101
-32.5149 -28.709 -987.86401
-29.746401 -29.344101 -982.06897
-25.3419 -30.920799 -978.16699
-23.958599 -31.392401 -976.56403
-23.5196 -31.505501 -976.29901
-20.2267 -32.566601 -973.51703
-15.0509 -34.1577 -969.98999
-13.4613 -34.655499 -969.117
-36.137699 -25.428801 -1014.82
-36.534599 -25.5089 -1011.29
-36.712898 -25.6269 -1007.91
-36.7066 -25.666901 -1007.29
-37.129501 -25.7614 -1006.43
-37.064098 -25.8981 -1005.09
-36.753399 -25.648701 -1002.01
-35.307598 -26.6639 -996.99799
-35.361801 -27.0224 -995.12201
-34.879601 -27.2036 -994.06799
-33.552601 -27.396 -991.93597
-30.1534 -28.7808 -984.17499
-29.024401 -29.2335 -981.16803
-18.721701 -32.547199 -971.87799
-5.6084599 -36.414299 -965.40399
-4.8297701 -36.696899 -965.09302
-1.9306 -37.5518 -964.30103
-37.000301 -25.4956 -1003.15
-36.5173 -25.482901 -1002.37
-36.386101 -25.8312 -1000.9
-36.349899 -25.9153 -999.72601
-34.390099 -26.490601 -994.38202
-30.9196 -27.7288 -985.74597
-30.099701 -28.262199 -984.08899
-21.968901 -30.965599 -974.58502
-5.5152602 -35.971401 -965.14203
-35.503502 -24.3078 -1017.72
-36.048 -24.335899 -1014.69
-36.806801 -24.7458 -1003.86
-36.4659 -25.028299 -1000.87
-36.1968 -25.181801 -999.10901
-35.165699 -25.5679 -996.82599
-32.923901 -26.9254 -988.94598
-31.4561 -27.153799 -986.83002
-30.718201 -27.424999 -985.42798
-30.0585 -27.6926 -983.97302
-29.5411 -27.914301 -983.24402
-21.178499 -30.7034 -973.72302
-8.9280396 -34.412998 -966.62
-35.7248 -23.751301 -1016.67
-36.917999 -23.7724 -1011.24
-37.019699 -23.820801 -1009.93
-36.560902 -24.032801 -1008.4
-36.7244 -24.118999 -1005.74
-36.779701 -24.3272 -1004.86
-35.900398 -24.7125 -999.34302
-35.09 -25.075199 -996.81598
-33.501598 -25.803101 -991.59198
-30.477501 -27.0021 -984.828
-16.1619 -31.689301 -970.01501
-14.6431 -32.179298 -969.09698
-4.8741498 -35.0508 -964.77399
-36.985699 -23.2395 -1009.76
-36.632801 -23.400101 -1008.8
-36.635601 -23.521601 -1006.87
-36.7034 -23.7356 -1005.42
-36.2145 -23.8785 -1002.16
-35.770901 -24.1497 -999.31702
-35.698002 -24.233299 -998.08197
-36.1063 -24.405701 -997.23499
-35.0956 -24.5014 -996.66699
-33.703098 -25.145901 -991.93201
-33.4715 -24.9702 -991.638
-28.9695 -27.0254 -981.38397
-19.407499 -30.1038 -972.263
-18.757 -30.3381 -971.401
-17.8755 -30.6563 -970.56598
-5.1802402 -34.276402 -964.646
-36.7187 -22.656099 -1011.18
-36.614899 -22.936701 -1009.72
-36.705898 -22.9604 -1008.43
-36.493198 -23.157101 -1006.61
-36.206299 -23.515499 -1002.36
-35.8312 -23.5807 -999.03497
-35.667999 -23.6994 -997.96698
-35.998798 -23.8934 -997.14203
-34.547199 -24.225201 -994.32898
-33.4235 -24.6696 -991.414
-29.676701 -25.970301 -982.59998
-28.8307 -26.478001 -982.06
-28.865 -26.490801 -981.22498
-18.8624 -29.760799 -971.099
-4.9061899 -33.903099 -964.43402
-36.483601 -22.133101 -1011.27
-36.5266 -22.3885 -1009.67
-36.506001 -22.3002 -1008.64
-36.310902 -22.6374 -1003.73
-36.2938 -22.9258 -1002.24
-35.687 -23.139299 -997.78302
-35.9883 -23.3456 -997.026
-34.510201 -23.9606 -994.01202
-33.766701 -23.773701 -991.36798
-32.979099 -24.352501 -989.59802
-28.6192 -25.7994 -981.23602
-27.8999 -26.0527 -980.38
-27.805901 -26.322001 -979.479
-25.5723 -27.4209 -977.22699
-19.404301 -29.012501 -971.99597
-18.335899 -29.336901 -970.76202
-5.0625601 -33.172401 -964.427
-36.449001 -21.488199 -1012.99
-36.398998 -21.6796 -1009.93
-36.441399 -21.7279 -1009.24
-36.4958 -21.8687 -1006.56
-36.094101 -22.2271 -1001.85
-35.958698 -22.335899 -1000.63
-35.834801 -22.7062 -999.26001
-35.554699 -22.669201 -997.10602
-33.9683 -23.336201 -992.63898
-29.4391 -24.9879 -982.87299
-28.7584 -25.241501 -982.03699
-27.690901 -25.8088 -979.39899
-21.715401 -27.6471 -973.28101
-18.7159 -28.6803 -971.07703
-13.7186 -30.140699 -967.78802
-7.2671499 -31.9993 -964.94702
-6.4472699 -32.301201 -965.09698
-4.8579102 -32.783199 -964.28003
-36.308998 -21.009899 -1012.95
-36.478699 -21.181801 -1011.46
-36.499699 -21.2904 -1009.5
-36.688499 -21.364 -1007.53
-35.909401 -21.838499 -1000.58
-34.335899 -22.6766 -993.45898
-33.9501 -22.8396 -992.52698
-33.528198 -23.0695 -990.84601
-32.943199 -23.312201 -989.38397
-32.641201 -23.423599 -989.03497
-31.4772 -23.681499 -986.36603
-29.3505 -24.493799 -982.784
-27.385599 -25.384701 -979.59601
-22.355301 -27.0282 -974.08002
-4.3298302 -32.460098 -963.74298
-30.6066 -20.9298 -1031.21
-36.1264 -20.5019 -1013.02
-36.549301 -21.101299 -1004.32
-36.1861 -21.3713 -1001.92
-35.889198 -21.6479 -999.052
-35.554199 -21.624701 -997.52698
-30.688 -23.690201 -984.57599
-30.025801 -23.885201 -983.87402
-28.678301 -24.355499 -981.62299
-28.008801 -24.629499 -980.05103
-23.441299 -26.151501 -975.185
-30.611799 -20.235399 -1031.12
-36.0882 -19.941601 -1014.15
-36.069801 -20.009701 -1012.9
-36.181198 -20.0453 -1011.51
-36.806599 -20.3839 -1006.01
-35.810101 -21.1707 -998.935
-34.295101 -21.6745 -993.27502
-32.639999 -22.376801 -988.72998
-31.236601 -22.934401 -986.06299
-26.953199 -24.479799 -978.96802
-26.689301 -24.5758 -978.56897
-23.6411 -25.4897 -974.81
-16.125 -27.928801 -969.23602
-12.5371 -28.9678 -966.91602
-35.885601 -19.433399 -1014.24
-36.089699 -19.5516 -1011.51
-36.377499 -19.731199 -1007.42
-36.341801 -19.886499 -1004.91
-36.285 -20.3244 -1001.72
-35.3927 -20.5877 -997.42297
-33.365002 -21.5378 -990.72998
-30.1789 -22.624701 -983.80298
-26.375 -24.1991 -977.88202
-18.3748 -26.7512 -970.13
-14.1018 -27.995701 -967.94501
-35.836498 -18.8957 -1014.07
-36.507801 -19.166201 -1009.09
-36.318298 -19.549601 -1004.65
-36.504299 -19.517401 -1003.99
-36.050301 -19.586201 -1001.85
-35.638199 -20.1404 -998.77399
-35.334499 -20.0532 -997.33899
-34.566601 -20.816799 -992.83502
-31.355301 -21.618999 -985.974
-26.2239 -23.6325 -977.90198
-18.328899 -26.200399 -970.04797
-13.0314 -27.749201 -967.25201
-3.97473 -30.3778 -963.59198
-35.698002 -18.374901 -1014.09
-36.018902 -19.0557 -1001.74
-33.301102 -20.4814 -990.48401
-18.3403 -25.5613 -969.78302
-36.0993 -18.1537 -1008.96
-36.454601 -18.270399 -1005.65
-35.966499 -18.5107 -1001.66
-35.6968 -18.6896 -999.97998
-34.088902 -19.554399 -992.99298
-29.4412 -21.211201 -982.151
-22.624901 -23.7335 -973.86499
-9.6641197 -27.6397 -965.37
-4.4930401 -29.123899 -963.67603
-3.9472001 -29.2799 -963.39099
-35.572498 -17.274 -1013.88
-36.114101 -17.4741 -1008.39
-36.231899 -17.5313 -1006.97
-36.204102 -17.6327 -1005.76
-35.5341 -18.247801 -998.65503
-35.577599 -18.2955 -997.901
-24.421 -22.563101 -975.63702
-18.138399 -24.5839 -969.94501
-15.5532 -25.3311 -968.42297
-3.28247 -28.8906 -963.06403
0.42950401 -29.9161 -962.06
-35.749901 -16.6103 -1014.76
-35.542999 -16.8218 -1014.15
-35.933899 -16.851601 -1010.29
-36.171501 -17.050699 -1006.28
-36.138901 -17.084801 -1005.71
-36.031101 -17.5224 -1002.42
-35.6689 -18.193399 -994.09601
-29.230301 -20.386 -981.51202
-28.266399 -20.717501 -980.37598
-24.395399 -22.013399 -975.52899
-19.245501 -23.6705 -970.90601
-18.191401 -24.0453 -969.71198
-2.4751599 -28.560301 -962.84802
-0.45507801 -29.051701 -961.80499
0.49585 -29.3449 -962.047
-35.614201 -16.214899 -1014.07
-36.0219 -16.3533 -1008.79
-35.981602 -16.7651 -1002.51
-36.0256 -17.0359 -1001.11
-35.494099 -17.3358 -999.41498
-35.498402 -17.3978 -998.237
-33.470798 -18.521299 -989.83801
-32.150299 -18.7113 -987.64502
-30.051001 -19.4993 -983.44702
-29.688601 -19.682699 -982.35797
-27.696199 -20.378599 -979.36603
-21.4312 -22.443399 -972.336
-15.5222 -24.260799 -968.19598
-0.21814001 -28.566299 -961.82098
-36.231701 -15.9299 -1008.54
-35.727901 -16.4249 -1000.71
-32.050999 -18.227301 -987.65802
-31.0065 -18.6406 -985.18298
-29.719601 -19.107401 -983.008
-18.5385 -22.758101 -969.724
-18.1628 -22.973499 -969.47198
-0.129089 -28.123199 -962.146
-36.355598 -15.3942 -1007.73
-35.612999 -15.9377 -1000.74
-35.602501 -16.226601 -999.203
-35.571999 -16.070601 -998.08398
-35.742901 -16.091 -997.354
-35.867001 -16.1208 -996.66602
-35.8862 -16.1751 -996.02399
-29.924999 -18.5172 -983.39398
-18.6199 -22.228901 -969.625
-17.6805 -22.600599 -969.052
1.4157701 -27.959101 -961.32001
-35.589401 -15.5094 -999.21503
-35.644699 -15.5736 -997.94202
-36.004398 -15.8293 -996.505
-35.908699 -15.6996 -995.17999
-35.5952 -16.0758 -994.70697
-30.8901 -17.6455 -985.09698
-24.2397 -19.989799 -975.237
-19.129801 -21.5989 -970.54797
-18.055901 -21.9786 -969.36603
-17.6236 -22.117001 -969.02502
-13.8937 -23.184 -967.099
-5.2056899 -25.6798 -963.06201
1.53204 -27.5326 -961.65997
-35.624001 -14.2306 -1010.5
-35.834702 -14.4048 -1007.23
-36.016201 -14.4466 -1005.67
-35.8312 -14.7629 -1002.11
-35.849499 -15.0371 -1000.74
-35.665798 -15.0472 -997.82202
-35.7649 -15.0724 -997.14697
-30.8452 -17.123699 -985.01202
-27.5471 -18.3626 -979.00299
-25.424999 -18.9613 -976.06097
-20.399799 -20.7192 -971.388
-18.3748 -21.343901 -969.64099
-17.969999 -21.464399 -969.31
-17.549 -21.597401 -968.96698
-11.1943 -23.422701 -965.56799
-2.1889 -25.9643 -962.35602
1.75781 -26.9659 -961.26398
-36.056198 -13.7327 -1009.48
-35.747002 -14.2037 -1002.07
-35.726601 -14.5496 -997.05603
-35.776901 -14.6247 -995.75598
-30.7568 -16.5958 -984.98499
-30.190201 -16.855301 -983.38
-25.192499 -18.4753 -975.98602
-24.407301 -18.9154 -974.70001
-23.2108 -19.2749 -973.71301
-22.3885 -19.5347 -973.07202
-16.148701 -21.389299 -967.69598
2.2237501 -26.635401 -961.12598
-35.0359 -13.0538 -1013.81
-35.124901 -13.0832 -1013.15
-35.5686 -13.1806 -1009.64
-35.695702 -13.6729 -1001.99
-35.585499 -13.7843 -1000.79
-35.462601 -13.942 -998.93597
-35.424702 -14.2708 -993.94098
-32.0578 -15.3313 -987.27399
-30.788601 -16.072599 -984.79602
-29.171 -16.5233 -980.83698
-22.3671 -19.0137 -972.98401
-18.303499 -20.2607 -969.43701
-17.6591 -20.3517 -968.51099
-7.6635699 -23.3547 -963.76801
2.5798299 -26.033899 -960.95697
3.2601299 -26.3351 -961.11102
-34.993099 -12.5108 -1014.84
-35.2024 -12.5479 -1012.31
-35.780899 -12.8817 -1004.91
-35.765099 -12.9783 -1003.64
-35.751701 -13.306 -1001.67
-35.912998 -13.5618 -997.34698
-35.6483 -13.502 -996.13599
-35.566101 -13.8256 -995.56799
-35.979698 -13.7197 -994.93597
-29.569799 -16.0005 -982.29602
-17.4618 -19.985399 -968.66101
-15.4887 -20.436399 -967.21301
-34.208801 -11.7257 -1020.17
-35.561199 -12.0854 -1010.59
-35.576698 -12.1679 -1008.12
-35.965099 -12.3865 -1005.25
-35.629002 -12.5728 -1001.7
-35.357601 -12.7779 -1000.12
-35.305901 -12.8739 -998.84698
-35.548302 -12.884 -997.41998
-35.315201 -13.0772 -995.77399
-35.3904 -13.4231 -993.78998
-29.432899 -15.4426 -982.34003
-26.7467 -16.266399 -977.27802
-24.907 -17.064699 -975.30701
-22.366899 -17.893499 -972.65802
-20.210899 -18.565701 -971.07397
-18.1525 -19.067499 -969.09198
-17.423599 -19.425501 -968.53302
-7.5540199 -22.235701 -963.599
-4.25946 -23.1651 -962.52899
-35.5793 -11.6906 -1006.71
-35.702099 -12.1951 -1001.48
-35.403801 -12.3801 -1000.32
-35.764999 -12.2761 -999.67603
-35.259499 -12.3246 -998.69702
-35.412899 -12.3591 -997.43402
-35.397598 -12.8458 -993.724
-35.302101 -12.8954 -993.20697
-30.643999 -14.2095 -984.66199
-27.944901 -15.4779 -979.34497
-24.237 -16.7351 -974.30603
-22.217501 -17.382999 -972.70502
-17.3892 -18.876301 -968.41199
-34.09 -10.5878 -1020.01
-34.688702 -10.862 -1014.65
-35.666901 -11.2706 -1004.52
-35.150902 -11.7959 -998.68701
-35.394501 -11.8221 -997.20801
-35.455799 -11.8512 -996.52301
-35.360699 -11.925 -995.992
-34.956402 -12.1141 -994.41803
-30.600201 -13.9228 -984.40601
-27.883499 -14.9395 -979.27002
-26.3638 -15.468 -977.23102
-24.254601 -16.1989 -974.10101
-22.924601 -16.582701 -973.354
-18.138399 -18.064899 -969.00299
7.9271898 -25.2425 -960.31598
-34.591202 -10.0735 -1018.04
-35.476101 -11.0015 -1001.42
-35.323502 -11.324 -997.07202
-34.895802 -11.9134 -993.69
-33.548199 -12.2595 -990.24597
-30.534401 -13.409 -984.33099
-24.701099 -15.4903 -975.11102
-22.3785 -16.150801 -972.32898
-18.8801 -17.3528 -969.72302
-33.841599 -9.5492601 -1020.42
-34.113998 -9.5543098 -1019.6
-35.477001 -10.0528 -1008.91
-34.976501 -10.7976 -998.59003
-34.943699 -11.1563 -997.17102
-33.791698 -11.6549 -990.508
-28.694 -13.6211 -980.31598
-25.105801 -14.7535 -975.33502
-24.110001 -15.2046 -974.01801
-20.0947 -16.440901 -970.67603
-17.104601 -17.4447 -967.45502
-16.4237 -17.5849 -967.43903
-8.2407799 -19.9076 -963.14099
9.2471304 -24.569099 -960.13
-35.259399 -9.5497999 -1007.71
-35.447399 -9.8323698 -1003.06
-34.673599 -10.7074 -997.13898
-34.926399 -10.4131 -996.58398
-22.7766 -15.1139 -973.10699
-22.0742 -15.3344 -972.29901
-20.952 -15.6716 -971.16602
-20.2855 -15.8029 -970.35303
-19.0734 -16.174 -969.30298
-17.898701 -16.614799 -968.91302
-16.832899 -16.8913 -967.62201
-16.2033 -17.1301 -967.60498
-13.1368 -18.023899 -965.68903
-35.587601 -9.1889601 -1006.08
-35.5648 -9.5259399 -1002.28
-34.876999 -10.1212 -997.01801
-34.550499 -10.2094 -993.58002
-31.576401 -11.4612 -986.28198
-30.422701 -11.8939 -984.01501
-16.7173 -16.4848 -967.70502
-16.299 -16.624901 -967.33099
-33.8853 -7.9852901 -1019.27
-34.948399 -8.4070902 -1009.51
-34.717701 -9.4173403 -996.40698
-34.3372 -9.7027102 -993.63702
-30.2833 -11.1937 -984.17798
-29.791901 -11.4156 -982.77197
-28.031601 -12.2376 -979.95398
-20.8043 -14.6725 -971.05103
-16.8016 -15.8039 -967.44501
-15.98 -16.053101 -967.11798
-10.3248 -17.690201 -963.927
-7.8566298 -18.4765 -962.66302
-35.313801 -8.0258503 -1007.92
-34.708698 -8.7409096 -998.289
-34.478001 -9.1303701 -996.90198
-34.029202 -8.9111004 -994.04999
-31.3622 -10.4156 -986.24298
-30.3104 -10.8421 -983.84998
-28.9772 -11.3148 -981.70203
-24.3629 -12.975 -974.82397
-23.062099 -13.2308 -973.49298
-22.825399 -13.499 -972.57703
-20.7911 -14.1123 -970.91199
-16.6171 -15.4148 -967.49701
-2.33112 -19.419399 -960.90503
-35.042099 -7.4844398 -1006.66
-35.0695 -7.5327702 -1006.02
-35.1124 -7.6174202 -1004.72
-35.194199 -7.63449 -1003.95
-33.792 -8.8027401 -992.50299
-28.3442 -11.0728 -979.97998
-26.9167 -11.5486 -977.81299
-23.752701 -12.6266 -973.72498
-21.812799 -13.2218 -972.03802
-19.552401 -13.8166 -969.66803
-16.4333 -14.8721 -967.56799
-33.834 -6.7025399 -1013.89
-35.294998 -7.0696402 -1005.77
-35.357101 -7.3117399 -1001.93
-34.811199 -7.4810901 -999.81201
-33.7635 -8.1832199 -993.69397
-28.414101 -10.4439 -980.54602
-27.434401 -10.8224 -978.62097
-22.609301 -12.4441 -972.56403
-20.6334 -13.0454 -970.78198
-33.2397 -6.0101099 -1017.26
-33.6978 -6.1314001 -1014.4
-34.591999 -6.2756901 -1009.25
-35.071701 -6.3894701 -1007.69
-34.783699 -6.3739901 -1007.26
-34.906502 -6.7543502 -1001.44
-35.161701 -6.91113 -1000.67
-34.858898 -7.1004901 -999.513
-34.5056 -7.1129298 -998.02301
-33.794601 -7.55685 -994.12799
-31.4494 -8.4671898 -986.19897
-30.044701 -9.2311802 -983.68298
-22.783001 -11.8762 -972.12701
-21.909201 -12.1004 -971.58801
-17.866699 -13.2431 -968.12
-16.3571 -13.7885 -967.32703
-15.7765 -14.0178 -966.328
1.64801 -18.7271 -959.84698
-33.650799 -5.61378 -1014.28
-34.301498 -6.7071199 -996.73999
-32.040199 -7.8642502 -988.39001
-30.514299 -8.5347204 -984.41302
-30.1539 -8.6397696 -984.13
-25.362499 -10.4571 -975.34601
-21.9767 -11.5604 -971.315
-19.7631 -12.2335 -969.87
-17.7003 -12.8594 -968.09302
-16.4249 -13.2269 -967.02399
-15.0578 -13.6422 -966.14398
-10.2508 -15.0084 -962.82501
-31.8976 -4.85992 -1022.58
-31.7234 -4.9983201 -1021.8
-33.3311 -4.96666 -1016.18
-33.583698 -5.0799198 -1014.19
-34.544998 -5.27318 -1008.38
-35.158798 -5.6196899 -1003.61
-34.699699 -5.79246 -1000.74
-34.3727 -6.1058898 -997.85199
-30.5541 -7.98453 -984.92798
-28.7062 -8.6861 -981.216
-26.770399 -9.4464598 -977.354
-19.7384 -11.7283 -969.76801
-15.3942 -12.9965 -966.46198
-31.386999 -4.4786901 -1022.4
-33.1115 -4.5173602 -1016.33
-34.420799 -4.77633 -1008.4
-34.701199 -5.13203 -1002.49
-34.357601 -5.5833702 -997.67401
-34.332199 -5.89291 -996.40399
-33.7948 -5.9169502 -995.047
-33.723301 -6.2620802 -993.68298
-31.9979 -6.86516 -988.10797
-29.0012 -8.4531603 -980.94
-27.5896 -8.59167 -979.40601
-25.964701 -9.2067404 -976.07599
0.133362 -16.7379 -959.57001
-34.2379 -4.2239699 -1009.59
-34.3419 -4.2724099 -1008.32
-34.872799 -4.35532 -1006.75
-34.917599 -4.68326 -1002.84
-34.537102 -4.8105898 -1000.62
-34.417702 -4.9816198 -998.78699
-34.027802 -5.2210202 -996.60699
-33.875099 -5.6446199 -994.70502
-31.855301 -6.4039502 -988.18103
-26.530001 -8.4360905 -977.466
-26.1866 -8.6366901 -976.54498
-25.5755 -8.7277498 -975.46503
-25.077801 -9.0439901 -974.82898
-14.7781 -12.2263 -965.32098
-2.72668 -15.4856 -960.54901
-0.55847198 -16.0959 -959.909
-33.180302 -3.51402 -1014.98
-34.132999 -3.75267 -1009
-34.671299 -3.7788999 -1008.03
-34.439602 -3.8687699 -1006.19
-33.7299 -5.2593999 -992.97699
-25.6611 -8.1455402 -974.95697
-24.883499 -8.5438204 -974.92401
-23.878201 -8.9713001 -972.93298
-23.1105 -9.1955004 -972.23999
-22.929399 -9.2879696 -971.63898
-34.627201 -3.6489301 -1003.39
-34.442299 -4.0322299 -999.10797
-34.110401 -4.3659401 -996.21802
-32.5037 -4.9556298 -990.612
-29.5952 -6.2190199 -983.32001
-27.3396 -6.9244099 -978.94
-25.8906 -7.6722298 -975.73602
-24.5016 -8.1260996 -974.40002
-24.7519 -7.9342699 -973.66901
-23.577101 -8.8740797 -972.46002
-22.9862 -8.7256899 -972.26398
-20.9753 -9.18011 -969.742
-30.7237 -2.3443 -1023.37
-30.8207 -2.4054899 -1022.57
-33.045799 -2.4582801 -1014.72
-27.8195 -6.34058 -980.03302
-27.018999 -6.6377802 -978.776
-25.8456 -7.1723499 -975.58698
-24.4202 -7.6395302 -974.18402
-23.7512 -7.80266 -973.55798
-23.013 -7.9588199 -972.79102
-22.8377 -8.12605 -971.31799
-21.756201 -8.5588799 -970.14697
-20.201 -9.0402899 -968.75
-18.847 -9.4312496 -967.922
-18.109699 -9.5461702 -967.20502
-16.5259 -10.0881 -966.39398
-11.9531 -11.403 -963.77301
1.2835701 -14.896 -959.48798
-33.402199 -2.0675099 -1011.66
-34.459 -2.2937 -1006.51
-34.197498 -2.2587399 -1005.93
-34.272499 -2.31322 -1005.22
-34.304901 -2.4565001 -1003.34
-34.298599 -2.5030799 -1002.72
-34.106998 -3.1892099 -997.22198
-33.726799 -3.1459999 -996.29199
-27.151699 -5.86584 -978.76898
-25.9897 -6.3618202 -975.547
-23.4046 -7.4291201 -972.961
-22.7729 -7.65239 -972.02301
-21.8276 -7.8318501 -971.62598
-20.4671 -8.3716402 -969.11298
-19.5273 -8.6507702 -968.62598
-17.759399 -9.16712 -967.39099
-33.550499 -1.61554 -1009.6
-31.6292 -3.69258 -988.29102
-31.4149 -3.7660699 -987.862
-27.354799 -5.44486 -978.74298
-27.258801 -5.48844 -978.164
-26.990801 -5.4654198 -977.65198
-26.476601 -5.7947602 -976.92297
-25.031099 -6.1126399 -975.16498
-24.067101 -6.5550199 -973.41699
-20.8407 -7.5036302 -970.492
-20.682899 -7.5464501 -969.68597
-17.7495 -8.6310396 -967.19098
-15.4776 -9.2827997 -965.55603
-14.8423 -9.4447699 -965.47302
-14.3981 -9.5661898 -965.099
-6.29248 -11.7914 -961.50897
-29.4266 -0.91160601 -1024.17
-29.927999 -0.91680098 -1022.17
-32.0989 -0.87451899 -1016.23
-33.822601 -1.09152 -1009.14
-34.353298 -1.28317 -1005.04
-34.067902 -1.3796901 -1003.28
-33.278599 -2.49997 -994.31799
-32.389301 -2.7604799 -990.70001
-27.268999 -4.9219999 -978.71399
-25.5452 -5.5296998 -975.409
-23.7393 -6.1132002 -973.75403
-23.5051 -6.0691199 -972.672
-20.3398 -7.2607698 -969.66302
-19.5154 -7.5269699 -969
-17.596201 -8.0924101 -967.18402
-12.3485 -9.6473799 -963.65399
-33.681198 -0.62480903 -1007.25
-32.9543 -1.87205 -993.31403
-32.4165 -2.5345199 -989.98798
-29.4512 -3.48208 -983.336
-26.8104 -4.3515902 -978.58002
-27.108601 -4.4545798 -978.01501
-25.5417 -5.0315299 -975.28802
-23.870399 -5.5542598 -973.28802
-21.650299 -6.25208 -971.15802
-18.6567 -7.1217699 -968.203
-18.1476 -7.3549099 -967.93298
-17.553101 -7.4987798 -967.909
-17.8843 -7.3677402 -967.03601
-5.73663 -10.8039 -960.74597
-33.544899 -1.1553299 -997
-32.456299 -1.60502 -991.70398
-29.337299 -2.8331599 -982.99902
-26.8447 -3.98596 -978.18799
-23.695601 -5.0960698 -973.39001
-23.153 -5.2988601 -972.41602
-22.1213 -5.6289301 -971.20898
-21.186001 -5.8873401 -970.85303
-17.419901 -6.9854698 -967.47302
-16.922001 -7.15308 -966.69202
-15.1052 -7.75423 -965.50299
-10.2028 -9.1351204 -962.99597
-32.903301 -1.13754 -993.026
-32.906399 -1.14139 -992.48199
-31.1187 -1.74073 -987.56403
-29.046301 -2.405 -982.96899
-26.7852 -3.3278201 -978.38702
-23.775 -4.4429002 -973.27502
-22.2017 -5.0718002 -971.828
-21.968901 -5.1747098 -971.29303
-20.020901 -5.7436399 -969.48901
-19.2145 -5.9987202 -968.78198
-17.3988 -6.5187898 -967.64697
-17.1639 -6.62323 -967.10303
-16.656 -6.6999502 -966.68903
-16.2787 -6.86935 -966.60602
-15.1564 -7.1936598 -965.24298
-12.2476 -8.0173998 -964.09698
-10.2207 -8.5460501 -962.70398
-9.5949097 -8.7651796 -962.61298
0.041381799 -11.269 -959.23798
-32.259102 1.11896 -1013.82
-31.053699 -1.25346 -987.47699
-27.049 -2.8956001 -978.409
-22.736099 -4.4479198 -971.74701
-22.0832 -4.6005001 -971.83698
-22.130899 -4.6512799 -970.89502
-21.2498 -4.8884702 -970.349
-20.0327 -5.2615399 -969.32898
-19.139799 -5.51863 -968.72101
-17.9097 -5.8898902 -967.66602
-17.2393 -6.0388198 -967.672
-17.107599 -6.1361198 -966.92401
-16.1383 -6.4187799 -966.534
-15.3644 -6.5708599 -965.60602
-14.9312 -6.7904401 -965.30402
-13.0633 -7.2542601 -964.79797
-32.231602 1.6267999 -1014.1
-33.809799 0.72674602 -999.74597
-30.4758 -0.91724402 -986.57397
-30.124599 -1.1065 -985.57202
-29.4195 -1.41824 -983.48102
-29.0804 -1.35742 -982.34198
-27.6001 -2.1427801 -979.71698
-22.0168 -3.9519999 -971.17102
-19.1378 -5.0184498 -968.565
-17.8057 -5.40694 -967.66199
-17.127501 -5.6231799 -966.71503
-15.5562 -6.07307 -966.10797
-3.9332299 -9.2312202 -960.43597
-32.538101 2.1164501 -1011.79
-33.143501 1.88433 -1007.02
-33.5667 1.17651 -999.11603
-32.8339 0.53759801 -993.94098
-32.486698 0.62291002 -993.05701
-31.2731 -0.381531 -987.61298
-30.8981 -0.22213 -987.31799
-29.270201 -0.90208399 -983.505
-23.3815 -3.0883 -973.19
-22.435101 -3.4779699 -971.81598
-21.7603 -3.4949 -971.12903
-18.958 -4.4959602 -968.63202
-17.739 -4.7393198 -967.52197
-9.8575401 -7.0953398 -962.815
-9.3126202 -7.2326498 -962.51599
3.5581701 -10.5684 -958.578
-33.050999 2.39323 -1006.92
-29.363501 -0.29636401 -983.96503
-27.591101 -1.02362 -980.133
-25.984699 -1.71799 -976.07898
-22.260599 -2.9302499 -971.87701
-18.9025 -3.9820299 -968.479
-16.6766 -4.6303301 -966.98102
-33.0364 2.1524401 -996.685
-32.3013 1.40149 -992.75702
-29.5753 0.59780902 -984.51501
-29.072001 0.131157 -983.39801
-28.831499 0.053031899 -982.95001
-28.789101 -0.304535 -982.71399
-26.701401 -0.826828 -978.17999
-19.849701 -2.9731801 -969.11798
-18.950701 -3.4175301 -968.28998
-31.8634 3.7374301 -1012.72
-32.522099 1.95834 -991.55103
-28.510799 0.505768 -982.44098
-27.9613 0.48196399 -981.21002
-26.802999 -0.177902 -979.28101
-26.254801 -0.147003 -978.02197
-22.008499 -1.73483 -971.29401
-21.729799 -1.8143899 -970.90399
-20.648199 -2.33951 -970.30402
-19.8132 -2.4405501 -969.05298
-18.8452 -2.8863699 -968.22803
-17.418699 -3.29948 -967.461
-16.503099 -3.5569 -966.854
-15.978 -3.6832199 -966.59998
-15.1873 -3.9466801 -965.83197
-12.716 -4.6259198 -964.38202
-11.7249 -4.87782 -963.75598
0.604065 -8.1409798 -958.90198
-30.8085 4.3009901 -1015.71
-31.7871 4.2849798 -1012.59
-32.082298 2.37883 -988.81201
-30.1437 1.94489 -986.37299
-28.358601 1.01185 -982.45697
-27.824699 0.98352098 -981.15601
-27.2855 0.57370001 -980.00201
-26.599501 0.29987299 -978.63898
-26.277399 0.37564099 -977.97302
-26.3729 0.38613901 -977.49701
-19.533001 -2.1382401 -968.948
-18.815001 -2.3482699 -968.104
-12.8822 -4.0229402 -963.96002
-9.7078896 -4.85953 -962.23798
-31.5791 4.7926002 -1012.65
-33.024799 3.87045 -999.435
-31.759899 2.89328 -989.04498
-28.975201 1.82753 -983.69598
-28.5931 1.8204 -982.44501
-26.076099 0.81216401 -977.92999
-24.5809 0.059295699 -974.84802
-22.929399 -0.86181599 -971.95898
-22.2589 -0.70384198 -972.14203
-21.5697 -0.93050402 -971.22198
-18.648899 -1.84382 -968.12701
-16.3643 -2.4909999 -966.65399
-13.3009 -3.3128099 -964.224
-12.6077 -3.54616 -964.159
3.8487501 -7.8361001 -957.94598
-33.151299 4.9959998 -1004.93
-32.149502 3.8447001 -993.74799
-31.9998 3.7421401 -992.59998
-32.2047 3.70136 -991.15399
-32.287498 3.64521 -990.42902
-30.6889 3.0629499 -987.88
-29.783701 2.7876 -986.29303
-28.787001 2.28039 -983.815
-28.3057 2.2388301 -982.41901
-27.146601 1.57245 -979.79797
-25.807199 1.09094 -977.75403
-23.814301 0.455452 -973.99799
-23.266001 0.27594799 -973.84003
-22.103701 -0.113647 -971.49402
-19.6495 -1.00594 -969.31
-18.631701 -1.36295 -967.966
-16.416 -1.86859 -966.453
-8.8132296 -4.0854001 -962.10199
-7.6683998 -4.3975101 -961.60901
-32.8461 5.5741801 -1006.27
-32.6376 4.9067001 -998.26898
-32.2038 4.4260898 -990.5
-29.990801 3.30762 -986.46198
-28.322001 2.7606201 -982.35901
-24.028099 0.87254298 -974.31
-23.886 0.88962603 -973.71399
-23.1542 0.73812902 -973.784
-20.1982 -0.35782599 -969.17499
-18.572001 -0.840042 -967.875
-16.196301 -1.51607 -966.57703
-32.299801 6.2129698 -1008.98
-32.963001 5.8120399 -1004.13
-32.865101 5.10818 -996.091
-32.395901 5.0007901 -993.89301
-30.223 3.94572 -987.44598
-28.639 3.2593801 -983.63
-28.079599 3.21573 -982.31598
-23.8141 1.43494 -974.315
-22.759899 1.05392 -972.53699
-20.681 0.46832299 -970.27002
-19.868 0.0502396 -969.526
-19.501801 -0.0153351 -969.16602
-18.9175 -0.174805 -969.06299
-18.223301 -0.39737701 -968.20398
-16.1401 -1.0079499 -966.48297
-11.3795 -2.30966 -963.20697
-1.104 -5.0549502 -959.22101
-32.6087 5.7273698 -996.13
-32.424 5.5939698 -995.01501
-32.334202 5.5320702 -994.45599
-32.321201 5.4221601 -993.29602
-28.999599 3.8782101 -983.68903
-25.004999 2.3654499 -976.841
-16.9366 -0.24758101 -967.04401
-16.080601 -0.50267798 -966.38501
-14.1953 -1.04247 -965.172
-10.726 -2.02139 -963.07599
2.1964099 -5.2646499 -958.27197
-32.241798 6.29671 -997.62299
-32.185101 5.6868601 -992.67603
-31.7355 5.7540598 -992.39398
-30.4314 5.12293 -988.211
-25.8454 3.2102699 -977.77802
-26.025299 2.91995 -977.11603
-24.208401 2.5314801 -974.41998
-19.5037 1.11607 -969.63202
-18.2342 0.65174901 -967.836
-16.941 0.272156 -966.87097
-12.1909 -0.969971 -963.65302
2.3619399 -4.7978702 -958.67603
-31.1082 7.85601 -1012.29
-32.164902 7.1636701 -1001.21
-30.7295 5.5457802 -989.08502
-28.383499 4.7270899 -982.61603
-25.3297 3.7941301 -977.64801
-25.557899 3.6272299 -977.211
-21.8878 2.3573799 -971.34003
-20.384199 1.83109 -969.99902
-18.0201 1.13264 -967.90002
-17.5798 1.0012 -967.617
-12.0859 -0.55692297 -963.80103
-11.3018 -0.84889197 -962.90601
-10.7248 -0.832672 -962.69397
-1.2674 -3.3143301 -958.96198
-31.3146 6.8418102 -993.00897
-24.9284 4.1542101 -976.151
-24.7866 3.89202 -975.70001
-22.4659 2.99512 -972.28101
-21.095501 2.6286199 -970.591
-19.0103 2.15411 -968.50702
-17.930099 1.65456 -967.84497
-16.5732 1.43054 -966.82501
-12.6756 0.28659099 -963.82098
-2.07794 -2.59235 -959.39697
-1.29059 -2.78724 -959.27899
7.0433998 -4.67697 -957.66602
-31.969101 7.6255498 -996.11798
-31.2794 7.4145398 -993.53802
-30.898899 7.0016799 -992.22803
-26.603701 5.3808298 -979.25598
-24.633699 4.6293898 -976.16803
-23.4974 4.1732798 -973.46802
-17.7642 2.2003701 -967.87598
-31.7449 8.4617701 -997.96503
-30.5445 7.5048499 -990.09601
-27.976801 6.2838402 -982.56299
-27.5609 6.1196198 -981.58698
-26.4939 5.7291398 -979.948
-24.618999 4.9802599 -976.224
-23.5506 4.6487899 -974.56
-18.0021 2.7918899 -967.34003
-15.9494 2.2265601 -966.46301
5.6715102 -3.3227301 -958.18799
-31.944 9.7165604 -1005.27
-32.0933 9.4611998 -1001.93
-30.892 8.0996704 -992.12903
-30.2327 7.95012 -989.604
-27.4233 6.70509 -982.39001
-26.099701 6.15801 -979.552
-24.7596 5.6203198 -976.56897
-23.8542 5.3092299 -975.50598
-22.8361 4.98627 -973.67798
-21.949699 4.6544299 -972.21399
-17.799299 3.28721 -967.42999
-17.189301 3.1301301 -967.38599
-15.8827 2.75845 -966.29498
-10.6607 1.27537 -962.95398
-4.9671001 -0.20917501 -960.40503
-31.033001 9.0232 -993.87299
-29.9471 8.3630104 -989.104
-27.790899 7.4980502 -982.33099
-22.3922 5.4408598 -973.099
-22.1493 5.2210498 -972.59802
-17.5961 3.7221799 -967.54401
-15.2849 3.10938 -966.10498
-10.8028 1.82093 -962.59497
-7.1774902 0.887169 -961.448
-3.60498 -0.0243225 -959.84601
-30.079901 10.9937 -1013.22
-31.3165 9.4886799 -994.82397
-30.8584 9.4427004 -993.224
-30.730301 9.0803499 -992.01898
-30.297199 9.0667601 -990.54199
-30.038799 9.2289104 -989.29102
-26.118601 7.3737202 -979.53497
-23.2122 6.0792799 -974.21802
-22.048 5.7129698 -973.38702
-21.184099 5.5651598 -971.89801
-21.263901 5.5820298 -971.46503
-20.181499 5.1429 -970.90802
-16.0732 3.86274 -966.71399
-15.2061 3.61285 -966.04999
-4.0468798 0.61216003 -960.17297
-31.778299 10.9529 -1003.71
-31.4844 10.4487 -998.91602
-27.1362 8.1566401 -982.19501
-26.3104 7.8024101 -980.24701
-26.003201 7.8540602 -979.49799
-20.167999 5.6547399 -971.41602
-20.0884 5.5949202 -970.73199
-17.7286 4.8083401 -967.89801
-17.4203 4.7035999 -967.41199
-15.9989 4.3385801 -966.62299
-15.2196 4.0872998 -965.84802
-13.2682 3.55862 -964.71802
-5.68677 1.5403301 -960.93903
-30.776899 11.8565 -1008.89
-31.349199 11.6583 -1005.24
-29.913601 9.9783897 -989.961
-27.080299 8.6527395 -982.08301
-26.0429 8.4595299 -980.401
-20.2286 6.1834002 -971.117
-19.933701 6.0450401 -970.59601
-19.654699 5.9597602 -970.24103
-18.8745 5.7544298 -968.76398
-17.7742 5.3680902 -967.60303
-17.3351 5.1989102 -967.30701
-14.907 4.5462298 -966.039
-9.8431997 3.22769 -962.27301
-8.0042105 2.7488999 -961.47198
-4.8825698 1.85505 -960.65802
-0.79046601 0.865089 -959.37701
3.7127099 -0.229866 -958.32898
-30.6602 12.3823 -1008.76
-30.580299 10.7354 -993.05603
-30.499901 10.6381 -991.91302
-27.5471 9.5770302 -982.138
-25.745399 8.8866596 -979.409
-21.580601 7.1809301 -972.38202
-21.342199 6.7263198 -972.20801
-19.843399 6.5746498 -970.58002
-18.998899 6.4842501 -969.45001
-18.284901 6.1391401 -969.36401
-17.771999 5.9601598 -968.29199
-17.5278 5.98453 -967.89801
-17.0557 5.7246599 -967.48798
-16.5644 5.7168598 -967.20502
-14.7734 5.0873499 -965.91101
-11.3517 4.1807899 -963.11401
-7.7757001 3.2065499 -961.85797
-30.0854 12.9023 -1010.34
-31.007999 12.506 -1003.25
-31.013399 11.7335 -996.44702
-29.421801 10.863 -988.77399
-27.441299 9.7974501 -981.85999
-25.418501 9.3454905 -979.383
-18.114799 6.6080298 -969.22198
-16.9678 6.2679901 -968.21301
-16.1598 6.0415001 -967.46503
-14.6949 5.7491102 -965.83801
-8.2642803 3.9361 -961.77899
-30.5089 13.2647 -1006.71
-30.004601 11.8228 -991.96399
-26.7103 10.1933 -981.961
-25.333401 9.6695004 -979.14697
-24.237101 9.4556599 -977.09399
-15.4079 6.3489299 -966.38702
-14.3373 6.0963202 -966.008
-13.1653 5.7301402 -964.89099
-12.6371 5.57517 -964.74103
-29.810801 12.3499 -992.008
-29.3859 12.0638 -989.76801
-29.2064 11.9775 -989.33801
-29.061399 11.7162 -988.64203
-16.5336 7.2541599 -967.32001
-15.2225 6.8961 -966.39697
-10.9706 5.6928501 -963.802
-10.4932 5.57548 -963.51501
-10.1108 5.4573698 -963.05603
-9.4555101 5.27986 -962.90698
-6.6916499 4.5820198 -961.34399
7.9475698 1.17035 -957.47302
-30.518999 14.1798 -1005.14
-29.002001 12.4122 -988.68402
-25.929899 11.0088 -980.24902
-24.4496 10.674 -977.91302
-15.112 7.41366 -966.34399
-28.9984 13.2704 -988.97998
-20.725901 9.81458 -971.94098
-13.9166 7.6517701 -965.89801
-30.5285 15.027 -1003.05
-29.752399 13.7431 -991.70398
-29.1707 13.4108 -990.10602
-29.021999 13.5655 -989.60999
-26.4762 12.5488 -981.92297
-20.4671 10.075 -971.776
-17.462799 9.1982098 -968.96503
-17.0474 9.0843201 -968.72498
-1.35895 4.92905 -959.18298
7.3963599 2.8491399 -957.82898
-28.1124 16.087999 -1013.45
-29.582399 14.2166 -991.69299
-29.3155 14.5912 -991.112
-26.039 12.9079 -981.43597
-23.644199 11.9501 -976.914
-15.9946 9.3642597 -967.33002
-14.7825 9.03088 -966.28198
-7.7251 6.99158 -962.25098
-28.580601 14.4568 -989.10498
-28.5462 14.1388 -987.97101
-25.7558 12.8568 -981.979
-19.641399 10.864 -970.52197
-13.0859 8.9686403 -965.505
-0.38696301 5.6591702 -959.10797
-29.1789 16.703899 -1006.07
-29.4634 16.572901 -1003.98
-29.052099 15.3998 -992.396
-29.067699 14.9994 -990.55701
-26.5042 13.9783 -983.03101
-25.802 13.9509 -981.90302
-20.1775 11.6382 -971.63501
-16.1014 10.3535 -967.56201
-15.7327 10.2204 -967.16602
-11.6256 9.0755301 -964.42798
-27.7188 17.4965 -1011.85
-29.144501 17.120199 -1004.61
-28.7365 15.4513 -989.98199
-28.3466 15.2645 -988.92297
-28.237801 15.6877 -988.36499
-24.358601 13.6701 -978.83002
-19.7959 12.1804 -971.33099
-19.305799 11.8842 -970.71198
-15.5918 10.7369 -967.17297
-9.0778198 8.9655704 -962.75897
-5.28339 8.0378704 -960.70398
-28.7815 17.650101 -1005.42
-29.1763 16.3545 -992.73999
-28.476999 16.191601 -990.672
-28.3755 16.125601 -990.133
-27.393999 15.5863 -986.52399
-27.471901 15.2743 -985.80402
-25.2701 14.5748 -980.45203
-13.2732 10.6097 -965.54498
-29.1602 17.267 -996.25098
-27.7099 16.3391 -988.00299
-24.3297 14.8102 -979.18799
-23.4589 14.684 -977.61902
-23.1859 13.9998 -976.76599
-22.142599 13.9428 -974.98999
-18.763399 12.8921 -970.461
-15.9055 11.9061 -967.21503
-15.4877 11.7753 -966.91602
-14.127 11.4092 -966.02301
-28.3937 18.5979 -1004.16
-27.73 17.228001 -987.77802
-27.275499 16.7253 -986.93201
-26.2707 16.0965 -984.04901
-24.938499 15.9181 -981.80499
-24.130899 15.3169 -979.23602
-20.7661 14.0312 -973.30298
-15.5886 12.5854 -967.42902
-14.0886 11.9423 -965.84399
-28.2621 17.615601 -990.43597
-27.639999 17.140699 -987.18903
-26.923 17.1406 -986.46899
-26.537399 16.9701 -985.57501
-24.1257 16.0804 -978.849
-14.0493 12.6524 -965.87402
-28.500299 19.1415 -998.16699
