# .PCD v0.7 - Point Cloud Data file format
VERSION 0.7
FIELDS x y z
SIZE 4 4 4
TYPE F F F
COUNT 1 1 1
WIDTH 1670
HEIGHT 1
VIEWPOINT 0 0 0 1 0 0 0
POINTS 1670
DATA ascii
39.836399 -35.432999 -1041.74
39.5173 -35.251099 -1042.13
38.268002 -34.7808 -1043.1801
36.576698 -33.989101 -1044.89
50.308201 -51.729801 -1011.41
50.372398 -51.2271 -1012.2
50.174301 -50.873699 -1012.81
50.381599 -50.362301 -1013.6
50.369301 -49.883301 -1014.34
50.1992 -49.474201 -1015
50.379299 -48.942699 -1015.88
50.3419 -47.640999 -1018.09
50.4576 -47.139702 -1018.83
49.9916 -46.930099 -1019.42
49.9249 -46.553001 -1020.09
49.938499 -46.066399 -1020.75
49.918301 -45.688999 -1021.39
49.648399 -45.414299 -1021.95
49.564499 -45.016102 -1022.61
49.5327 -44.211102 -1023.9
49.296299 -43.847801 -1024.33
49.148399 -43.594398 -1025.0699
49.075298 -43.216301 -1025.63
48.809898 -42.959599 -1026.17
48.611099 -42.650799 -1026.7
48.498402 -42.240601 -1027.15
48.494301 -41.969299 -1027.85
48.3363 -41.642101 -1028.38
48.044102 -41.406101 -1028.91
47.613201 -41.177399 -1029.38
47.584599 -40.845501 -1029.9301
47.244099 -40.6152 -1030.42
47.137501 -40.270901 -1030.95
47.045799 -39.972301 -1031.46
46.666801 -39.601002 -1031.85
46.520802 -39.4869 -1032.39
45.947102 -39.0182 -1033.33
45.732101 -38.761398 -1033.79
45.314701 -38.233299 -1034.74
45.047199 -38.011101 -1035.1801
44.623001 -37.8228 -1035.59
43.989899 -37.300999 -1036.1801
43.914299 -37.144299 -1036.9
43.213299 -37.0597 -1037.24
43.353901 -36.678902 -1037.79
42.984798 -36.442902 -1038.24
42.7491 -36.2593 -1038.67
41.7896 -35.997398 -1039.35
40.346699 -35.001099 -1041.26
38.616699 -34.134701 -1043.11
36.2122 -33.0989 -1044.8101
32.586899 -31.795 -1047.78
26.935499 -30.7852 -1050.75
49.830101 -52.422401 -1009.48
50.3731 -48.906898 -1014.97
50.1856 -48.519001 -1015.72
50.529099 -47.928101 -1016.53
50.4683 -47.4603 -1017.28
50.300098 -47.161701 -1017.78
50.496601 -46.625 -1018.71
50.165501 -46.315498 -1019.36
50.2355 -45.873501 -1020.05
49.940701 -45.5928 -1020.62
50.121899 -45.110699 -1021.32
50.099998 -44.707199 -1021.95
49.7799 -44.3657 -1022.44
49.4664 -43.716 -1023.77
49.366001 -42.959 -1024.98
49.053902 -42.726101 -1025.52
48.930801 -42.307899 -1025.95
48.6241 -42.136398 -1026.58
48.479698 -41.838902 -1027.15
48.470001 -41.460602 -1027.71
48.437901 -41.082901 -1028.27
48.141998 -40.824001 -1028.8101
47.6455 -40.1982 -1029.6
46.9039 -39.161301 -1031.84
46.736301 -38.915699 -1032.3
46.410599 -38.680698 -1032.75
46.019501 -38.476002 -1033.21
45.5937 -38.303902 -1033.62
45.465801 -38.0131 -1034.12
45.250198 -37.761101 -1034.6
44.8745 -37.244801 -1035.53
44.4058 -36.9048 -1035.74
44.2472 -36.831902 -1036.35
43.948399 -36.635799 -1036.76
43.5751 -36.441299 -1037.1801
43.455799 -36.132599 -1037.66
43.180901 -35.9048 -1038.16
43.042801 -35.612499 -1038.61
42.1343 -35.334 -1039.28
41.3321 -34.8456 -1039.73
40.993999 -34.718899 -1040.08
40.361099 -34.277699 -1040.9301
38.652302 -33.310299 -1042.89
37.619099 -33.150101 -1044.03
35.944302 -32.367599 -1045.0699
34.7038 -32.009399 -1045.97
32.7453 -31.073 -1047.65
50.1199 -51.829601 -1009.25
50.384201 -48.3708 -1014.84
50.415699 -47.9683 -1015.46
50.573898 -47.365601 -1016.44
50.226398 -47.068501 -1017.11
50.340698 -46.215199 -1018.34
50.223801 -45.782398 -1019.23
50.095001 -45.377499 -1019.88
50.107101 -44.580502 -1021.17
50.064301 -44.194401 -1021.85
49.632198 -43.556702 -1023.03
49.408001 -42.840599 -1024.26
49.3606 -42.468201 -1024.83
49.304901 -42.116402 -1025.4399
49.214298 -41.751999 -1026.01
48.9725 -41.472599 -1026.52
48.760399 -41.191898 -1027.0601
48.771198 -40.799999 -1027.63
48.440498 -40.575401 -1028.1801
48.2617 -40.237701 -1028.76
48.208 -39.8885 -1029.35
47.660599 -39.364399 -1030.35
47.441002 -38.759201 -1031.33
47.046001 -38.613998 -1031.73
46.875702 -38.3414 -1032.2
46.495098 -38.129799 -1032.62
46.156399 -37.908501 -1033.09
45.822899 -37.655602 -1033.27
45.328602 -37.206699 -1034.47
44.774899 -36.760201 -1035.37
44.6833 -36.438702 -1035.83
43.9319 -35.9524 -1036.4
43.948898 -35.749599 -1037.12
43.451 -35.538601 -1037.24
42.698799 -34.8871 -1038.88
42.4021 -34.683701 -1039.27
41.8918 -34.4072 -1039.37
40.225498 -33.7034 -1041.5
33.659901 -31.264999 -1047.08
30.5595 -30.506399 -1049.09
50.5392 -46.854301 -1016.33
50.511799 -46.420898 -1017.08
50.318802 -46.068802 -1017.76
50.258301 -45.667099 -1018.42
50.179401 -45.239601 -1019.11
50.301399 -44.803799 -1019.8
50.565601 -44.260399 -1020.5
50.001999 -44.110401 -1021.03
50.2668 -43.148102 -1022.43
49.849899 -42.928902 -1022.97
49.653702 -42.591702 -1023.56
49.601898 -41.8587 -1024.75
49.357899 -41.5396 -1025.33
49.068199 -41.3008 -1025.86
49.251598 -40.869099 -1026.46
48.629299 -40.6973 -1026.92
48.9491 -40.210098 -1027.6
48.6553 -39.944801 -1028.1801
48.2598 -39.723801 -1028.6899
48.482101 -39.255199 -1029.3101
47.949799 -39.1185 -1029.75
47.906601 -38.746498 -1030.28
47.240799 -38.3396 -1031.17
46.614799 -37.9039 -1031.6899
46.576698 -37.578899 -1032.5
46.3722 -37.316101 -1033
46.058998 -37.094898 -1033.45
43.394501 -34.726299 -1038.01
42.796501 -34.2024 -1038.66
41.947899 -33.709999 -1040.1
40.995499 -33.1674 -1041.22
40.5872 -33.011902 -1041.58
40.096298 -32.773201 -1041.6
32.730801 -30.556601 -1047.53
29.4601 -29.6394 -1049.79
50.176899 -42.6436 -1022.35
50.196098 -42.241901 -1022.92
50.062099 -41.864201 -1023.53
49.4464 -41.374298 -1024.63
49.354401 -41.051701 -1025.2
49.273102 -40.687302 -1025.76
48.865799 -40.4431 -1026.25
48.879002 -40.072701 -1026.9
49.140499 -39.602798 -1027.53
48.849701 -39.333302 -1028.08
48.7635 -38.9702 -1028.65
48.330601 -38.781101 -1029.14
47.815102 -38.2728 -1030.13
47.527401 -38.027302 -1030.6
47.2948 -37.780102 -1031.03
46.878101 -37.2561 -1031.97
46.720001 -36.968102 -1032.48
44.971699 -35.216801 -1035.8199
44.267601 -34.505798 -1037.14
43.513302 -34.1189 -1037.99
43.404701 -33.847599 -1038.4399
42.108501 -33.093899 -1040.04
41.675701 -32.951599 -1040.39
41.053299 -32.420799 -1040.99
40.9156 -32.307598 -1041.58
38.653801 -31.3929 -1043.67
37.431301 -30.9846 -1044.63
29.495001 -29.082199 -1049.66
50.8792 -42.496601 -1021.31
50.516399 -42.163502 -1021.9
49.788898 -40.6619 -1024.5699
49.682701 -40.340401 -1025.14
49.249901 -40.1306 -1025.61
49.392601 -39.713402 -1026.24
49.111801 -39.427399 -1026.77
48.932598 -39.160301 -1027.28
48.950001 -38.760899 -1027.87
48.505501 -38.539902 -1028.39
48.2006 -37.9417 -1029.5
48.088699 -37.6157 -1030.01
47.915199 -37.328201 -1030.51
46.0266 -35.2715 -1034.42
45.187901 -34.5695 -1035.8101
45.047798 -34.287601 -1036.25
44.623501 -33.848 -1037.13
43.7472 -33.4921 -1037.9301
43.561298 -33.241501 -1038.36
43.159698 -33.056198 -1038.74
42.713699 -32.600601 -1039.58
41.109798 -31.997101 -1041.04
41.0499 -31.702 -1041.47
40.6908 -31.538 -1041.84
39.1782 -30.917 -1043.26
38.622101 -30.8258 -1043.55
35.311199 -29.785299 -1045.64
35.0784 -29.6528 -1046.36
51.073101 -42.263199 -1020.66
50.773602 -41.2654 -1022.22
50.215099 -40.655701 -1023.47
49.830601 -40.077099 -1024.49
49.502102 -39.522301 -1025.53
49.4646 -39.1534 -1026.08
49.2952 -38.862099 -1026.63
49.032902 -38.561501 -1027.15
48.790798 -38.304001 -1027.58
48.565899 -37.998402 -1028.26
48.618 -37.608398 -1028.84
48.320301 -36.979599 -1029.96
47.760899 -36.447899 -1031.01
47.804401 -36.083801 -1031.61
47.384701 -35.5373 -1032.6
46.3242 -34.9086 -1033.91
46.019001 -34.374901 -1034.87
45.727299 -34.151001 -1035.33
45.164902 -33.721901 -1036.14
44.913898 -33.493999 -1036.5699
44.765301 -33.1992 -1037.03
43.206402 -32.476799 -1038.37
40.907501 -31.1614 -1041
39.317101 -30.312901 -1043.15
38.9935 -30.1607 -1043.48
37.982101 -29.8738 -1043.8199
37.440399 -29.606001 -1044.8101
34.625 -29.049299 -1046.4301
33.396 -28.4851 -1047.17
27.2115 -27.5882 -1050.59
51.7924 -44.772499 -1015.17
51.696602 -44.457699 -1015.86
51.566299 -43.531898 -1017.27
51.595299 -43.102798 -1017.98
51.446899 -42.3279 -1019.34
51.2001 -42.023701 -1019.92
51.241798 -41.651699 -1020.51
51.174999 -41.332401 -1020.99
50.828899 -41.043201 -1021.51
50.728901 -40.719799 -1022.16
50.666199 -40.371201 -1022.8
50.3615 -40.044498 -1023.38
50.368 -39.669998 -1023.99
50.010502 -39.443699 -1024.4399
49.805801 -38.834301 -1025.45
49.5425 -38.542702 -1025.96
49.164398 -38.374901 -1026.4399
49.0103 -38.0271 -1026.92
48.908001 -37.6987 -1027.55
48.662998 -37.3866 -1027.98
48.574001 -37.049099 -1028.6801
48.224701 -36.812199 -1029.28
48.392399 -36.2761 -1029.9
48.187599 -36.069401 -1030.51
48.065399 -35.745899 -1031.01
47.8517 -35.502102 -1031.52
47.516899 -35.3097 -1031.95
47.206902 -35.056301 -1032.4
47.300598 -34.6511 -1032.95
46.556 -34.2855 -1033.83
46.398701 -33.992599 -1034.3
44.237701 -32.540001 -1037.27
43.8606 -32.3615 -1037.65
43.310699 -31.938299 -1038.48
41.900501 -30.931999 -1040.4399
41.4067 -30.8002 -1040.78
40.531898 -30.2342 -1041.9399
39.403702 -29.763 -1043
38.921501 -29.6413 -1043.3101
38.4547 -29.4051 -1043.37
37.3251 -28.999399 -1044.34
33.478199 -28.107901 -1047.17
32.9739 -27.7395 -1048.03
51.777199 -44.258099 -1015.09
51.881802 -43.7299 -1015.86
51.657398 -42.970402 -1017.18
51.604698 -42.5676 -1017.88
51.633499 -42.208801 -1018.46
51.523701 -41.776299 -1019.17
51.2444 -41.575802 -1019.53
51.018799 -41.228001 -1020.17
50.9995 -40.838902 -1020.73
50.728298 -40.6078 -1021.34
50.767502 -40.197899 -1021.92
50.845001 -39.726101 -1022.66
50.6726 -39.437698 -1023.27
50.382999 -39.2201 -1023.77
50.1721 -38.7883 -1024.25
49.599201 -38.3787 -1025.24
49.127602 -38.211601 -1025.71
49.2421 -37.7943 -1026.33
48.928699 -37.154202 -1027.4
49.180401 -36.655701 -1028.0699
48.931499 -36.388302 -1028.66
48.448299 -36.222198 -1029.17
48.7673 -35.686001 -1029.89
48.338001 -35.454899 -1030.4
48.078201 -35.092602 -1030.86
48.0354 -34.892601 -1031.38
47.687099 -34.7654 -1031.6899
47.442902 -34.471298 -1032.23
47.050999 -34.222801 -1032.74
47.088501 -33.866798 -1033.28
46.505901 -33.431499 -1034.17
46.051201 -33.146999 -1034.4399
45.5546 -32.612301 -1035.45
45.4893 -32.459 -1035.91
45.132 -32.306999 -1036.3101
44.620701 -32.201801 -1036.6899
44.2104 -32.0401 -1037.1
44.2598 -31.695299 -1037.58
43.719101 -31.5452 -1037.9301
43.5989 -31.3176 -1038.39
42.806599 -30.9387 -1039.15
41.413502 -30.3041 -1040.63
40.945702 -29.8557 -1041.4301
38.545399 -28.756201 -1043.3101
33.440601 -27.6164 -1047
32.458199 -27.0945 -1048.05
31.271601 -26.535999 -1048.36
31.145201 -26.7756 -1048.9301
30.6234 -26.691299 -1049.2
30.0944 -26.3962 -1048.86
20.0928 -25.1768 -1053.16
11.2849 -25.280701 -1055.09
52.2314 -44.428299 -1013.49
52.177399 -44.039398 -1014.23
51.935699 -43.615002 -1014.96
51.9147 -43.255402 -1015.59
51.8442 -42.843201 -1016.27
51.767601 -42.434601 -1016.96
51.4389 -42.158401 -1017.6
51.5751 -41.655899 -1018.21
51.675499 -41.246899 -1018.92
51.210499 -41.032799 -1019.38
50.956799 -40.731499 -1019.93
51.2435 -40.224998 -1020.65
51.050701 -39.905102 -1021.27
49.763901 -37.809601 -1025.13
49.502701 -37.525002 -1025.63
49.436901 -37.187302 -1026.21
49.034901 -36.965199 -1026.7
49.3708 -36.405701 -1027.42
49.067799 -36.136101 -1028.01
48.742699 -35.571301 -1029.08
48.540199 -35.112801 -1029.62
48.5387 -34.9286 -1030.2
47.980801 -34.778198 -1030.6
47.6562 -33.909599 -1032.0601
47.300301 -33.647499 -1032.6
47.1036 -33.368599 -1033.12
45.977798 -32.423599 -1034.91
45.6647 -32.234402 -1035.34
45.333599 -32.059799 -1035.75
45.1642 -31.812599 -1036.1801
44.727299 -31.6625 -1036.5699
42.992901 -30.362301 -1039.04
41.339199 -29.4939 -1040.92
40.974701 -29.3097 -1041.29
37.323299 -28.404499 -1043.79
33.4575 -27.0753 -1046.8
32.475101 -26.0994 -1047.6
32.025101 -25.9702 -1047.9
30.564199 -26.0152 -1048.64
21.059799 -25.0648 -1052.4
51.790699 -44.542 -1012.47
52.143398 -43.934799 -1013.31
51.9319 -43.611301 -1013.93
52.0214 -43.151501 -1014.61
51.7342 -42.852402 -1015.18
51.690201 -42.440201 -1015.85
51.8857 -41.933498 -1016.68
51.752399 -41.544498 -1017.35
51.595798 -41.131901 -1018.02
51.450298 -40.802101 -1018.63
51.318501 -40.342899 -1019.2
51.305801 -40.033298 -1019.91
51.297199 -39.674702 -1020.56
50.8433 -39.466099 -1021.14
50.444801 -38.080299 -1023.37
50.3354 -37.778801 -1023.93
49.836201 -37.227402 -1025
49.787201 -36.904999 -1025.55
49.652599 -36.561901 -1026.12
49.501301 -36.217201 -1026.74
49.488998 -35.845699 -1027.42
49.3074 -35.5658 -1027.96
49.096699 -35.251701 -1028.45
48.658401 -34.978901 -1028.7
47.790501 -34.359501 -1030.28
47.6656 -33.953499 -1030.6
47.730499 -33.6875 -1031.3101
47.7169 -33.364601 -1031.86
47.152302 -33.2327 -1032.35
46.348801 -32.538799 -1033.67
45.983501 -31.9067 -1034.75
45.837502 -31.661699 -1035.22
45.626598 -31.4251 -1035.63
45.194302 -31.2393 -1036.03
44.9683 -31.023701 -1036.47
44.642601 -30.8242 -1036.87
43.553398 -30.148399 -1037.77
42.482101 -29.4792 -1039.67
42.158001 -29.2759 -1040.05
40.377399 -28.271299 -1041.25
38.689098 -27.977699 -1043.02
37.595798 -27.7845 -1043.6
31.482401 -25.582001 -1047.9399
29.317699 -25.146601 -1049.24
52.0914 -44.781101 -1010.99
52.041401 -44.360199 -1011.64
52.019001 -43.941399 -1012.39
52.056801 -43.516998 -1013.07
51.570599 -43.277699 -1013.57
51.7103 -42.806999 -1014.27
51.8494 -42.296799 -1015.05
51.660599 -41.941502 -1015.7
51.878101 -41.424301 -1016.5
51.5252 -41.1157 -1017.11
51.5686 -40.110901 -1018.6
51.497002 -39.748199 -1019.22
51.570999 -39.464401 -1019.88
51.6614 -39.016998 -1020.53
51.181198 -38.820099 -1021.08
50.479698 -37.9617 -1022.6
50.507099 -37.571499 -1023.23
50.293201 -37.296902 -1023.77
50.319099 -36.904999 -1024.4
49.986401 -36.672699 -1024.91
49.784698 -36.354198 -1025.46
49.807899 -35.9534 -1026.14
49.790699 -35.582401 -1026.77
49.705799 -35.217499 -1027.34
49.186298 -35.090801 -1027.79
48.345299 -34.317402 -1029.2
48.206799 -33.7141 -1030.2
47.964802 -33.4636 -1030.7
47.703602 -33.247898 -1031.15
47.1637 -33.088902 -1031.59
46.444302 -32.3283 -1032.99
45.940201 -31.470301 -1034.58
44.836201 -30.448999 -1036.02
42.972301 -29.260599 -1038.36
42.971699 -29.082001 -1039.1801
41.8367 -28.623899 -1040.21
40.636501 -28.000799 -1040.58
40.671101 -27.7356 -1041.02
39.957001 -27.0865 -1042.17
38.554001 -27.2885 -1042.63
36.6451 -26.590599 -1044.25
28.955999 -24.5037 -1049.4301
52.018799 -44.402802 -1010.53
52.0345 -43.817299 -1011.45
51.796101 -43.5228 -1012.09
51.777599 -43.126099 -1012.63
52.059601 -42.561298 -1013.46
51.9953 -41.7342 -1014.92
52.1138 -41.229599 -1015.69
51.784 -40.923599 -1016.25
51.9557 -40.405701 -1017.14
52.0247 -39.935799 -1017.83
51.5597 -39.726101 -1018.39
51.5401 -39.335999 -1019.07
51.115299 -39.123299 -1019.62
51.308701 -38.644798 -1020.14
51.159199 -38.353001 -1020.87
50.777802 -37.682999 -1021.89
50.726101 -37.3634 -1022.51
50.373001 -37.118698 -1023.07
50.197601 -36.820301 -1023.63
50.186501 -36.444698 -1024.22
50.155499 -35.915199 -1024.83
50.224201 -35.651501 -1025.54
50.101501 -35.316002 -1026.12
49.722301 -35.105499 -1026.63
49.442299 -34.815399 -1027.14
49.245701 -34.187801 -1028.1801
49.012299 -33.8797 -1028.6801
48.8423 -33.625401 -1029.1801
48.544399 -33.426102 -1029.66
48.326801 -33.148899 -1030.09
47.524799 -32.758499 -1030.9399
47.351101 -32.5037 -1031.41
46.8489 -32.007801 -1032.36
46.766102 -31.689199 -1032.88
46.297199 -31.2054 -1033.84
46.080002 -30.741301 -1034.3199
45.835201 -30.706499 -1034.85
45.638401 -30.4877 -1035.29
44.1558 -29.5756 -1036.64
43.954899 -29.3095 -1037.13
43.4767 -29.004101 -1038.21
43.285801 -28.756599 -1038.64
42.403702 -28.328699 -1039.16
40.893501 -27.710699 -1040.51
38.482101 -26.7969 -1043.09
38.024101 -26.662701 -1043.4
36.736801 -26.034 -1044.17
35.677601 -25.599501 -1044.8101
34.246601 -25.3256 -1045.9301
31.646999 -24.8405 -1047.89
30.2339 -24.1129 -1048.55
51.966599 -44.337898 -1009.55
51.9935 -43.909599 -1010.43
51.894798 -42.948898 -1011.91
51.939098 -41.610401 -1014.11
51.9687 -41.165401 -1014.89
52.209801 -40.681599 -1015.6
51.980202 -40.289501 -1016.29
51.702202 -39.992901 -1016.95
51.9655 -39.438702 -1017.74
51.905499 -39.092201 -1018.38
51.759201 -38.769001 -1018.95
51.385899 -38.155701 -1020.1
51.130199 -37.8582 -1020.6
51.115799 -37.464802 -1021.2
50.9645 -37.162701 -1021.8
50.6786 -36.875999 -1022.28
50.637001 -36.489498 -1022.98
50.690899 -36.117001 -1023.58
50.257301 -35.852798 -1024.11
50.291599 -35.4039 -1024.74
50.031399 -35.1791 -1025.4
49.893799 -34.8573 -1025.9399
49.959999 -34.477402 -1026.54
49.539799 -34.257 -1027.02
49.485802 -33.9207 -1027.5699
49.205101 -33.6954 -1028.0601
48.939899 -33.088402 -1029.09
48.429699 -32.918201 -1029.47
48.324902 -32.6049 -1029.97
47.916401 -32.384201 -1030.21
47.784698 -32.167599 -1030.89
47.393799 -31.6675 -1031.85
46.918999 -31.1348 -1032.8
46.539799 -30.9508 -1033.22
46.2817 -30.719999 -1033.67
46.003799 -30.2185 -1034.62
45.501999 -29.792999 -1035.09
44.021099 -28.9972 -1037.04
43.543098 -28.5322 -1038.05
42.952099 -28.0877 -1038.86
42.261299 -27.789 -1039.5601
41.625198 -27.7603 -1039.8101
39.672001 -26.977301 -1041.52
38.838001 -26.412399 -1042.59
38.4921 -26.273701 -1042.9301
37.817299 -25.9571 -1043.63
36.910198 -25.694901 -1044.26
31.7328 -24.0555 -1047.62
29.509001 -23.3417 -1048.96
51.9669 -42.451401 -1011.75
51.791801 -42.068199 -1012.39
52.014 -41.560902 -1013.18
52.060699 -41.079102 -1013.94
51.834702 -40.741001 -1014.63
52.056099 -40.237801 -1015.49
52.3195 -39.6343 -1016.24
52.266102 -39.247101 -1016.94
51.516899 -38.330898 -1018.68
51.528 -37.991501 -1019.26
51.3755 -37.6558 -1019.82
51.259499 -37.311401 -1020.42
51.1446 -36.944599 -1021.05
50.820099 -36.2841 -1022.22
50.644001 -35.973499 -1022.81
50.588001 -35.5536 -1023.45
50.3932 -35.277802 -1024.05
50.427898 -34.899399 -1024.7
50.035599 -34.6759 -1025.21
50.289101 -34.223 -1025.86
50.180401 -33.888 -1026.41
49.684299 -33.615299 -1026.8101
49.438599 -33.408401 -1027.4
49.409599 -33.059601 -1027.97
49.2719 -32.769501 -1028.46
48.946201 -32.553299 -1028.9399
48.453201 -32.034302 -1029.87
48.348999 -31.7561 -1030.38
47.896999 -31.610201 -1030.78
47.774101 -31.3339 -1031.29
47.320301 -31.148701 -1031.7
46.270302 -30.208799 -1033.52
45.730999 -29.769899 -1034.35
45.3792 -29.502199 -1034.58
44.746799 -29.1649 -1035.58
44.5233 -28.8477 -1035.8199
44.43 -28.671301 -1036.49
44.003601 -28.325399 -1036.8101
43.605301 -28.033001 -1037.86
42.313999 -27.280001 -1039.3
41.373199 -27.333099 -1039.54
40.807598 -26.9419 -1040.25
39.563801 -26.216801 -1041.77
37.887402 -25.410999 -1043.51
36.178001 -24.9135 -1044.71
34.570099 -24.402 -1045.98
52.0938 -41.833099 -1011.54
52.030602 -41.422901 -1012.31
52.109501 -41.002399 -1013.07
52.188499 -40.500198 -1013.82
52.116501 -40.109699 -1014.58
51.8755 -39.702499 -1015.23
52.038799 -39.183601 -1016.02
52.3447 -38.629299 -1016.79
52.119301 -38.331699 -1017.45
51.781601 -38.062199 -1018.04
51.533401 -37.785099 -1018.55
51.470299 -37.462799 -1019.09
51.227402 -36.7612 -1020.28
51.1954 -36.383801 -1020.89
51.1674 -36.0135 -1021.54
51.025299 -35.655399 -1022.13
50.7216 -35.388401 -1022.68
50.6059 -35.089401 -1023.26
50.194401 -34.448101 -1024.41
50.327702 -34.0504 -1025
50.060501 -33.799 -1025.55
50.022099 -33.426498 -1026.15
49.769402 -33.031898 -1026.74
49.787201 -32.763802 -1027.3
49.541199 -32.487202 -1027.83
49.025799 -32.311699 -1028.25
48.950901 -32.019798 -1028.78
48.647598 -31.7062 -1029.22
48.488998 -31.5161 -1029.73
48.144699 -31.2236 -1030.08
47.993801 -31.0096 -1030.6801
47.8307 -30.747601 -1031.14
47.466801 -30.5606 -1031.6
47.3671 -30.254499 -1032.08
46.806702 -30.195499 -1032.14
45.908798 -29.8225 -1033.25
45.8391 -29.178301 -1034.24
45.366299 -29.060499 -1034.62
45.331402 -28.7411 -1035.09
43.695499 -27.712999 -1036.92
42.547298 -27.259199 -1038.29
42.515099 -26.9942 -1038.6801
41.7047 -26.681999 -1039.41
39.057999 -25.308001 -1042.29
38.184898 -24.8451 -1042.87
34.152901 -23.7314 -1046.11
33.717098 -23.622801 -1046.42
33.251999 -23.3829 -1046.41
52.191101 -40.800999 -1012.25
52.503101 -40.248798 -1013.08
52.245399 -39.93 -1013.7
52.255001 -39.032299 -1015.22
52.478901 -38.4813 -1016.01
52.253201 -38.146801 -1016.67
52.108299 -37.798599 -1017.28
51.8088 -37.629501 -1017.69
51.545502 -36.903801 -1018.93
51.3792 -36.5765 -1019.51
51.294201 -36.234001 -1020.11
51.460999 -35.747398 -1020.81
51.250301 -35.474499 -1021.38
51.1903 -35.088501 -1022
50.844799 -34.8405 -1022.55
50.573299 -34.543499 -1023.11
50.644798 -34.123699 -1023.78
50.331001 -33.8671 -1024.25
49.956501 -33.693699 -1024.71
50.331699 -33.2211 -1025.37
49.963699 -32.9604 -1025.88
49.803299 -32.556599 -1026.55
49.918201 -32.193901 -1027.16
49.524799 -31.972099 -1027.65
49.495098 -31.6311 -1028.22
49.058201 -31.4487 -1028.66
48.789398 -31.205601 -1029.15
48.1964 -30.748501 -1029.86
48.0602 -30.472401 -1030.52
48.039501 -30.1555 -1031.03
47.883099 -29.8664 -1031.54
46.604 -29.3389 -1032.5
46.4916 -29.0432 -1033.23
46.057701 -28.8986 -1033.6801
45.544701 -28.1583 -1034.99
44.937401 -27.996 -1035.1
44.4245 -27.618999 -1036.14
44.102699 -27.2743 -1036.47
43.4632 -26.895599 -1037.27
42.778999 -26.6681 -1038.14
42.434601 -26.332701 -1038.39
41.723801 -26.1586 -1039.24
40.188 -25.229 -1041.16
38.767101 -24.626101 -1042.47
37.891701 -24.2034 -1043
37.565399 -24.1784 -1043.54
34.9603 -23.3778 -1045
52.262501 -39.772701 -1012.88
52.453499 -39.276501 -1013.63
52.114899 -38.091301 -1015.78
52.1684 -37.658298 -1016.5
52.228001 -37.2318 -1017.17
51.771999 -36.657001 -1018.22
51.792301 -36.264099 -1018.83
51.389301 -36.049099 -1019.37
51.381802 -35.617901 -1019.93
51.432301 -35.250198 -1020.64
50.890598 -35.045898 -1021.16
51.273998 -34.497501 -1021.87
50.986099 -34.2435 -1022.43
50.854 -33.9268 -1023
50.3862 -33.332699 -1024.1
50.427101 -32.992001 -1024.67
50.112999 -32.739799 -1025.14
50.020802 -32.424 -1025.7
49.725601 -32.1614 -1026.25
49.7281 -31.7633 -1026.92
49.524799 -31.4505 -1027.5
49.373798 -31.104799 -1028.02
48.892799 -30.619699 -1029
48.758499 -30.349899 -1029.48
48.451302 -30.1411 -1029.9301
48.395599 -29.8274 -1030.4301
48.067001 -29.599001 -1030.88
47.939999 -29.307899 -1031.4
47.457298 -29.1395 -1031.8
47.302101 -28.871099 -1032.29
47.004501 -28.677799 -1032.72
46.221901 -28.24 -1033.37
45.621201 -27.9021 -1034.38
44.805599 -27.591801 -1035.12
44.440102 -27.0065 -1035.8
44.202801 -26.8521 -1036.45
44.136398 -26.57 -1036.9
43.778 -26.373501 -1037.27
42.764 -26.082199 -1037.67
42.1474 -25.772499 -1038.72
40.144001 -24.604401 -1040.74
40.054699 -24.4564 -1041.41
38.2076 -24.007401 -1042.64
36.468601 -23.2026 -1044.36
35.7104 -22.9228 -1044.9399
34.684898 -22.572399 -1045.3199
52.398998 -38.749699 -1013.47
52.384499 -38.367401 -1014.2
52.312901 -37.940601 -1014.89
52.342999 -37.5009 -1015.63
52.421001 -37.036201 -1016.35
52.184799 -36.368698 -1017.57
51.983101 -36.0317 -1018.07
51.656799 -35.789299 -1018.58
51.5275 -35.451599 -1019.23
51.393799 -35.1273 -1019.83
51.514801 -34.661098 -1020.51
51.234402 -34.3493 -1021.07
51.066002 -34.067501 -1021.66
51.2369 -33.616501 -1022.33
50.903 -33.351799 -1022.86
50.494301 -32.782101 -1023.99
50.321999 -32.154301 -1025.03
49.966702 -31.9217 -1025.53
50.0746 -31.5028 -1026.13
50.049599 -31.1754 -1026.75
49.443401 -30.995199 -1027.28
49.3591 -30.5546 -1027.78
48.916401 -30.110701 -1028.85
48.573898 -29.548599 -1029.8
48.182301 -29.249201 -1030.1899
48.080799 -29.090799 -1030.73
47.926601 -28.7925 -1031.23
47.319302 -28.341499 -1032.13
47.027 -28.129999 -1032.58
46.821701 -27.9063 -1033.04
45.626202 -27.091101 -1034.64
45.124802 -26.9424 -1035.03
44.6861 -26.4695 -1035.91
44.3461 -26.279499 -1036.3199
43.4916 -25.9807 -1037.0601
43.122299 -25.4881 -1037.86
42.9086 -25.3013 -1038.29
42.358601 -25.188 -1038.63
39.642799 -23.8055 -1041.59
38.923199 -23.500401 -1042.21
36.877499 -22.8265 -1043.9
35.549198 -22.319201 -1044.45
33.298599 -21.6765 -1046.62
28.934401 -20.7307 -1048.63
27.4263 -20.506001 -1049.36
17.4865 -19.5856 -1052.6801
52.290798 -37.806801 -1014.05
52.605099 -37.2953 -1014.82
52.283199 -36.989899 -1015.48
52.311001 -36.534698 -1016.11
52.293098 -36.196499 -1016.77
51.972 -35.148399 -1018.55
51.608501 -34.8927 -1019.09
51.677101 -34.454201 -1019.74
51.477901 -34.191502 -1020.35
51.296501 -33.799 -1020.89
51.158501 -33.527802 -1021.53
51.242001 -33.104198 -1022.17
51.270901 -32.7145 -1022.79
51.044998 -32.398201 -1023.4
50.501598 -32.1586 -1023.71
50.608501 -31.8755 -1024.38
50.244801 -31.6397 -1024.87
50.3344 -31.2265 -1025.45
50.030201 -30.988899 -1025.96
49.704201 -30.7717 -1026.46
49.5942 -30.430599 -1027.1
49.7617 -29.9622 -1027.77
49.221001 -29.805 -1028.21
49.1152 -29.493999 -1028.73
48.696499 -29.3169 -1029.14
48.411301 -29.1007 -1029.63
48.358299 -28.7766 -1030.11
47.967499 -28.507299 -1030.35
47.713902 -28.0394 -1031.55
47.518299 -27.742701 -1032.01
47.0956 -27.6035 -1032.42
46.8773 -27.344999 -1032.86
46.045399 -26.857401 -1033.45
45.2458 -26.191 -1034.8101
45.127399 -26.1012 -1035.39
44.722 -25.938601 -1035.78
43.623901 -25.2227 -1036.71
42.553799 -24.598499 -1038.52
42.322399 -24.3741 -1038.9
41.759602 -24.2707 -1039.23
41.3615 -24.1495 -1039.58
40.6717 -23.7621 -1040.3199
38.411598 -22.7356 -1042.08
37.501999 -22.374001 -1043.45
36.354099 -21.6737 -1043.9
28.622 -19.8174 -1048.73
52.5802 -37.149399 -1013.91
52.558601 -36.783901 -1014.66
52.347801 -36.478401 -1015.24
52.2864 -36.077999 -1015.87
52.200901 -35.6973 -1016.49
52.016701 -35.325001 -1017.05
51.857399 -35.041901 -1017.71
51.793201 -34.6866 -1018.34
51.970001 -34.217499 -1019.02
51.876099 -33.883701 -1019.6
51.494301 -33.561298 -1020.11
51.398399 -33.105999 -1020.83
51.186401 -32.964401 -1021.39
51.373299 -32.511799 -1022.05
50.7939 -32.355499 -1022.52
51.0718 -31.851101 -1023.25
50.4627 -31.0117 -1024.76
50.116798 -30.805599 -1025.23
49.7556 -30.588699 -1025.73
49.815399 -30.2131 -1026.28
49.5909 -29.9182 -1026.86
49.731499 -29.4687 -1027.5601
49.597599 -29.147699 -1028.12
48.680698 -28.441299 -1029.51
48.479599 -28.226601 -1029.98
48.183399 -28.01 -1030.45
47.909901 -27.756901 -1030.91
47.671799 -27.532301 -1031.36
47.250999 -27.1429 -1031.6801
47.140598 -27.072599 -1032.16
47.045502 -26.7686 -1032.7
46.404099 -26.3592 -1033.59
46.0914 -26.170799 -1034.01
45.6474 -25.772699 -1034.3
45.547699 -25.7397 -1034.8199
43.839199 -24.8099 -1036.8
42.9505 -24.255501 -1037.99
42.483002 -23.8302 -1038.24
39.657902 -22.548201 -1041.02
38.870998 -22.3137 -1041.55
37.732399 -21.896999 -1042.58
37.429798 -21.600901 -1043.09
36.390598 -21.205799 -1043.72
33.271198 -20.3106 -1046.14
29.060499 -19.4286 -1048.3
28.5217 -19.527901 -1048.55
27.424601 -19.2523 -1049
52.690498 -37.1357 -1012.95
52.688801 -35.852798 -1015.1
52.596699 -35.442101 -1015.72
52.029202 -35.264599 -1016.28
52.075401 -34.8531 -1016.95
52.183998 -34.401402 -1017.64
51.8596 -34.1245 -1018.21
51.6703 -33.812 -1018.81
51.6129 -33.479698 -1019.45
51.4202 -32.703602 -1020.55
51.178001 -32.479099 -1021.23
51.063599 -32.153702 -1021.82
51.004902 -31.7603 -1022.41
51.2309 -31.2808 -1023.13
50.841999 -31.0804 -1023.61
50.367802 -30.5889 -1024.58
50.1147 -30.326599 -1025.1
49.8564 -30.0467 -1025.62
49.701 -29.641399 -1025.98
49.434399 -29.501101 -1026.65
49.684601 -29.0541 -1027.3101
49.347401 -28.765499 -1027.87
48.7799 -28.2771 -1028.87
48.675701 -27.982201 -1029.35
48.529598 -27.7272 -1029.84
48.323799 -27.459499 -1030.3101
47.9897 -27.270901 -1030.77
47.375198 -27.178801 -1031.12
46.666 -26.092199 -1033.01
46.219398 -25.628799 -1033.88
45.682899 -25.319 -1034.08
44.881699 -24.8563 -1035.48
44.595798 -24.628 -1035.9
43.641701 -24.076 -1037.1
42.3773 -23.376499 -1038.6
39.464401 -21.906 -1040.8
38.938202 -21.5401 -1041.53
38.568401 -21.6415 -1041.77
37.703701 -21.129801 -1042.49
37.603199 -20.8825 -1042.8101
36.457001 -20.714399 -1043.49
33.3265 -19.7131 -1045.8199
29.0863 -18.953199 -1048.16
27.6369 -18.6761 -1048.86
52.501598 -36.312302 -1013.29
52.462601 -35.815201 -1014.25
52.527599 -35.374001 -1014.88
52.399799 -35.035702 -1015.52
52.220402 -34.682098 -1016.06
52.191101 -34.205299 -1016.87
52.237701 -33.902 -1017.48
52.198002 -33.514301 -1018.15
51.937599 -33.2262 -1018.77
51.955601 -32.835701 -1019.37
51.614201 -32.512798 -1019.83
51.739201 -32.174099 -1020.57
51.290901 -31.548 -1021.71
51.1357 -31.1252 -1022.22
50.721298 -30.987499 -1022.85
50.868 -30.564699 -1023.46
50.674801 -30.304001 -1023.93
50.626999 -29.9897 -1024.49
50.181 -29.6182 -1024.9301
50.181301 -29.4195 -1025.52
49.939201 -29.174801 -1026.01
49.553001 -28.9816 -1026.5
49.536701 -28.615801 -1027.05
49.592999 -28.218901 -1027.6899
49.295101 -27.959801 -1028.24
48.976002 -27.7208 -1028.72
48.863701 -27.4084 -1029.23
48.419498 -27.1138 -1029.5601
48.357101 -26.9832 -1030.14
47.2808 -26.3867 -1031.3101
47.144001 -25.738001 -1032.4
46.597099 -25.4464 -1032.66
46.565201 -25.295 -1033.3199
46.045399 -24.959299 -1033.6
45.992298 -24.894699 -1034.16
45.4095 -24.480301 -1034.97
44.936699 -24.336201 -1035.36
44.604698 -24.1397 -1035.76
43.556301 -23.344601 -1037.37
42.417801 -22.8554 -1038.4301
41.8787 -22.4307 -1039.22
40.892799 -22.0007 -1039.6801
39.453098 -21.4247 -1040.6
39.475201 -21.1465 -1040.99
38.198799 -21.023001 -1041.58
37.7234 -20.8561 -1042.25
36.513802 -20.215099 -1043.26
36.307999 -20.263201 -1043.61
35.927898 -19.84 -1044.04
35.0998 -19.8596 -1044.61
52.241299 -37.987099 -1009.6
52.561699 -37.428799 -1010.47
52.4636 -35.757 -1013.32
52.683201 -34.830399 -1014.75
52.3451 -34.533298 -1015.34
52.305099 -34.151001 -1016.03
52.323502 -33.769699 -1016.72
52.151001 -33.356201 -1017.34
52.077202 -33.067402 -1017.96
52.023899 -32.675201 -1018.56
51.7276 -32.397598 -1019.15
51.791401 -31.9855 -1019.79
51.769199 -31.607901 -1020.43
51.540199 -31.313801 -1021
51.572701 -30.915001 -1021.61
51.566601 -30.5776 -1022.2
51.298302 -30.272499 -1022.83
50.763199 -29.769501 -1023.8
50.819901 -29.387199 -1024.36
50.218102 -29.160801 -1024.78
49.687401 -28.410801 -1026.36
49.423901 -28.150801 -1026.84
49.2397 -27.810301 -1027.27
49.279499 -27.491501 -1027.98
48.7537 -26.999599 -1028.98
48.382 -26.8323 -1029.4301
48.170898 -26.356501 -1029.91
47.4543 -26.174101 -1030.6899
47.3815 -25.871099 -1031.14
47.078999 -25.515301 -1031.55
46.676899 -25.089399 -1032.6801
46.435398 -24.8717 -1033.14
46.163101 -24.655899 -1033.55
45.832001 -24.2696 -1033.9399
45.562401 -24.263 -1034.37
45.375198 -24.018101 -1034.83
45.225399 -23.7498 -1035.27
43.895599 -23.2176 -1036.0699
43.4491 -22.8452 -1037.1899
37.739799 -20.121599 -1042.1
37.555401 -19.944401 -1042.47
35.77 -19.444901 -1043.73
33.362499 -18.701099 -1045.5
25.172899 -17.8466 -1049.86
52.696301 -38.237999 -1007.92
52.533298 -37.828899 -1008.7
52.5863 -37.430801 -1009.5
52.6147 -34.7015 -1014.03
52.622002 -34.311798 -1014.59
52.1161 -34.101501 -1015.13
52.5844 -33.5364 -1015.92
52.182598 -33.277901 -1016.5
51.977299 -32.981998 -1017.1
52.0098 -32.540401 -1017.76
51.957901 -32.202202 -1018.38
52.109501 -31.747601 -1019.05
51.779499 -31.491699 -1019.63
51.670399 -31.156401 -1020.22
51.538101 -30.8057 -1020.83
51.4259 -30.104099 -1022.02
51.042999 -29.853001 -1022.61
50.794601 -29.581301 -1023.12
50.767601 -29.0902 -1023.78
50.4571 -29.017099 -1024.15
50.283199 -28.6621 -1024.61
50.293598 -28.3724 -1025.24
50.213402 -28.0434 -1025.75
49.669998 -27.797501 -1026.17
49.300999 -27.341999 -1027.2
49.038502 -27.007999 -1027.63
48.8437 -26.860201 -1028.1899
48.610001 -26.593 -1028.6801
48.269901 -26.3622 -1028.9301
47.763401 -26.247499 -1029.54
47.6492 -25.623301 -1030.53
47.4174 -25.377701 -1030.97
47.357101 -25.0714 -1031.47
46.925499 -24.887199 -1031.95
46.4431 -24.3708 -1032.9399
45.505402 -23.6752 -1033.96
45.192402 -23.26 -1035.09
44.702099 -23.129299 -1035.47
44.5145 -22.896799 -1035.87
43.925598 -22.7118 -1036.02
43.488899 -22.6971 -1036.4301
43.381401 -22.088499 -1037.45
42.705898 -21.7491 -1038.1801
40.583099 -20.873199 -1039.77
38.563099 -20.393299 -1041.4399
36.6199 -19.679199 -1043.09
35.659901 -19.2047 -1044.08
31.3452 -18.100599 -1046.9301
52.827599 -33.694099 -1014.49
52.8326 -33.301998 -1015.14
52.4342 -33.020401 -1015.71
52.328201 -32.7556 -1016.3
52.134701 -32.003101 -1017.59
52.087002 -31.586399 -1018.24
52.176498 -31.1868 -1018.9
51.813599 -30.8997 -1019.44
51.715599 -30.585501 -1020.07
51.749901 -30.1982 -1020.69
51.599998 -29.884899 -1021.28
51.312099 -29.612 -1021.83
51.123001 -28.93 -1022.99
50.885201 -28.6465 -1023.47
50.9594 -28.250299 -1024.15
50.526001 -28.074499 -1024.62
50.127899 -27.8606 -1024.95
50.181702 -27.529499 -1025.5699
50.0359 -27.2325 -1026.11
49.725201 -26.995501 -1026.59
49.4958 -26.736799 -1027.0699
48.812 -26.3048 -1027.99
48.3741 -25.807301 -1028.92
48.118999 -25.589701 -1029.39
48.111 -25.2304 -1029.91
47.826401 -25.0093 -1030.36
47.460899 -24.828899 -1030.79
47.286201 -24.571699 -1031.28
46.943802 -24.186199 -1031.79
46.255798 -23.931999 -1032.63
46.116901 -23.471901 -1033.1801
45.594101 -22.9296 -1034.39
44.986801 -22.8242 -1034.8
44.957699 -22.037901 -1035.8
43.882099 -22.1849 -1035.78
43.020901 -21.723801 -1037.16
42.894798 -21.452499 -1037.62
42.502701 -21.297899 -1037.98
40.713402 -20.4646 -1039.75
37.668598 -19.344801 -1042.3
31.2507 -17.367001 -1046.61
27.751699 -16.950899 -1048.09
26.708599 -16.781401 -1048.54
52.773899 -33.175701 -1014.33
52.671799 -32.833099 -1014.95
52.653801 -32.4352 -1015.63
52.327599 -31.735701 -1016.92
52.2799 -31.378 -1017.48
52.4543 -30.937099 -1018.17
52.010201 -30.6761 -1018.78
51.873299 -30.369801 -1019.3
51.897499 -29.993 -1019.94
51.637699 -29.7159 -1020.49
51.7006 -29.324499 -1021.13
51.4081 -29.0646 -1021.68
51.325901 -28.7108 -1022.32
51.307999 -28.312 -1022.87
50.822899 -28.2101 -1023.31
50.935699 -27.717199 -1023.99
50.6161 -27.493999 -1024.49
50.5378 -27.191299 -1024.97
50.080002 -27.032301 -1025.4
50.118198 -26.675501 -1025.98
49.788399 -26.4352 -1026.42
49.511398 -26.223301 -1026.9301
49.251999 -25.975599 -1027.4
48.8522 -25.7862 -1027.8199
48.6628 -25.1884 -1028.8101
48.176102 -25.049601 -1029.24
48.040001 -24.7397 -1029.73
47.916 -24.486099 -1030.22
47.271198 -24.049801 -1031.11
46.487999 -23.378401 -1032.42
46.251999 -23.1443 -1032.86
45.569801 -22.7815 -1033.67
44.848499 -22.349899 -1034.55
44.690601 -21.901699 -1035.05
43.7561 -21.8636 -1035.66
43.176899 -21.4846 -1036.46
43.344799 -21.1224 -1036.97
42.8522 -21.0103 -1037.38
42.7328 -20.7348 -1037.87
41.192299 -20.095699 -1039.26
38.373798 -19.172899 -1041.47
37.5275 -18.7215 -1041.92
35.3494 -18.041201 -1044.03
32.954899 -17.402399 -1045.1899
31.385599 -16.531099 -1046.4399
52.6852 -35.364101 -1009.68
52.9151 -32.5853 -1014.2
52.796101 -32.2827 -1014.81
52.448898 -30.810699 -1017.34
51.868 -30.647699 -1017.84
52.077499 -30.197599 -1018.53
51.955601 -29.8353 -1019.15
52.001598 -29.4345 -1019.79
51.630798 -29.192301 -1020.33
51.915001 -28.6901 -1021.02
51.461899 -28.5198 -1021.51
51.4529 -28.125099 -1022.17
51.108002 -27.7687 -1022.77
50.738201 -27.709 -1023.11
50.846901 -27.134199 -1023.85
50.504002 -27.0109 -1024.15
50.4739 -26.3829 -1025.36
49.8634 -25.924801 -1026.29
49.650902 -25.6185 -1026.77
49.1609 -25.177601 -1027.73
48.844299 -24.9485 -1028.17
48.3172 -24.4902 -1029.09
47.659901 -24.024 -1029.8
47.650002 -23.718399 -1030.5
47.1115 -23.595501 -1030.9
46.565399 -23.1194 -1031.53
45.736301 -22.423201 -1032.89
45.699902 -22.214899 -1033.51
45.418201 -21.993 -1033.97
44.726299 -21.624901 -1034.77
43.305099 -20.6236 -1036.73
41.486099 -19.455299 -1038.76
40.59 -19.389999 -1039.08
39.102798 -18.979099 -1040.61
37.668499 -18.304899 -1041.96
36.534 -17.9105 -1042.9399
36.0205 -17.819 -1043.24
35.4669 -17.465599 -1043.87
30.8522 -16.264601 -1046.45
52.949699 -32.918499 -1012.62
52.8004 -32.532902 -1013.28
52.917801 -32.026501 -1014.08
52.7565 -31.366199 -1015.32
52.3153 -31.123899 -1015.89
52.448399 -30.671301 -1016.56
52.288101 -29.9597 -1017.77
52.097099 -29.667801 -1018.36
52.290001 -29.188499 -1019.06
52.004002 -28.910801 -1019.62
51.929298 -28.1744 -1020.85
51.724998 -27.9062 -1021.39
51.271702 -27.679399 -1021.94
51.2626 -26.9529 -1023.1
51.171501 -26.5672 -1023.76
50.8452 -26.3484 -1024.25
50.169998 -25.823999 -1025.15
50.103901 -25.6604 -1025.67
49.8353 -25.059299 -1026.66
49.117001 -24.650499 -1027.5601
48.851898 -24.441299 -1028.02
48.6866 -24.1686 -1028.49
48.248402 -23.8825 -1028.8199
48.016701 -23.406 -1029.9
47.7481 -23.157301 -1030.36
47.5452 -22.9156 -1030.8101
47.1903 -22.7279 -1031.24
46.371799 -22.0805 -1032.54
46.065601 -21.884399 -1032.9399
45.2369 -21.559 -1033.77
44.863499 -21.059401 -1034.62
43.938599 -20.741899 -1034.99
42.439499 -19.818701 -1037.28
41.686501 -19.3918 -1037.74
40.5872 -19.016399 -1039.1
38.740299 -18.159901 -1040.45
38.398399 -17.9683 -1040.84
38.205799 -17.9088 -1041.5
34.4842 -16.7882 -1044.27
33.937901 -16.7101 -1044.53
32.665798 -16.1133 -1045.2
31.839899 -15.9348 -1045.73
31.517099 -15.9484 -1046.3101
20.0096 -14.7547 -1050.95
52.946999 -32.4557 -1012.28
52.977402 -31.477501 -1013.95
52.748699 -31.179701 -1014.48
52.8256 -30.799 -1015.16
52.5602 -30.480301 -1015.78
52.454498 -30.1702 -1016.38
52.6535 -29.688601 -1017.06
52.6366 -29.3349 -1017.69
52.297699 -29.076401 -1018.22
52.058701 -28.6441 -1018.84
52.0802 -28.3741 -1019.48
51.719601 -28.108801 -1020.03
51.682201 -27.3864 -1021.23
51.646702 -27.0268 -1021.84
51.4119 -26.7355 -1022.38
51.460602 -26.378799 -1022.99
51.105701 -26.087601 -1023.59
50.830299 -25.835699 -1024.11
50.365898 -25.345501 -1025.01
49.991001 -25.1688 -1025.47
50.080299 -24.775999 -1026
49.532799 -24.652 -1026.41
49.208401 -24.1108 -1027.38
48.919701 -23.899599 -1027.85
48.236301 -23.486601 -1028.71
47.778099 -22.6411 -1030.1899
47.002899 -22.1336 -1030.88
46.336498 -21.592199 -1032.36
45.911301 -21.4405 -1032.73
45.7911 -21.171499 -1033.1899
43.328701 -19.6141 -1036.38
42.419899 -19.145201 -1036.91
40.837399 -18.4182 -1038.97
40.255501 -18.3496 -1039.27
40.105202 -18.121201 -1039.64
38.123501 -16.9056 -1041.14
35.4641 -16.4695 -1043.53
28.0602 -14.9271 -1047.79
17.6294 -13.8441 -1051.15
53.139 -32.245201 -1011.47
52.726898 -31.5562 -1012.89
52.884399 -31.011 -1013.75
52.852501 -30.6416 -1014.38
53.012901 -30.218901 -1015.04
52.651901 -29.962799 -1015.6
52.951801 -29.4198 -1016.34
52.384899 -29.2882 -1016.83
52.614799 -28.820601 -1017.51
52.145401 -28.6138 -1018.03
52.241901 -28.1621 -1018.7
52.107201 -27.884399 -1019.3
51.8083 -27.6028 -1019.86
51.973099 -27.1537 -1020.51
51.572899 -26.795401 -1020.97
51.464199 -26.198601 -1022.21
51.069599 -25.9832 -1022.74
50.895 -25.6255 -1023.4
50.919498 -25.2889 -1023.99
50.312199 -24.849501 -1024.85
50.379799 -24.516701 -1025.36
49.843102 -24.0392 -1026.3
49.486599 -23.8447 -1026.75
48.993801 -23.360001 -1027.6801
48.599701 -22.981701 -1028.01
48.626499 -22.8332 -1028.63
48.005199 -22.3867 -1029.5601
47.919899 -22.093201 -1030.0601
47.543701 -21.9055 -1030.48
47.2784 -21.6716 -1030.92
46.553398 -21.025999 -1031.77
46.5452 -20.993799 -1032.22
46.109798 -20.849501 -1032.62
45.690201 -20.4842 -1032.84
45.011501 -19.9662 -1034.33
44.212502 -19.672899 -1035.0601
44.037998 -18.959999 -1035.3101
42.9081 -18.953199 -1036.58
42.482201 -18.554399 -1036.76
42.435799 -18.5247 -1037.35
41.857899 -18.433599 -1037.6801
40.008499 -17.4182 -1039.24
37.154202 -16.4107 -1042.15
36.2131 -15.7512 -1042.5699
35.810799 -15.6412 -1042.88
34.894299 -15.6778 -1043.3199
28.2861 -13.8818 -1047.49
26.9615 -13.5916 -1048.28
53.134399 -31.7953 -1011.3
53.081299 -30.852699 -1012.79
53.0019 -30.463699 -1013.61
52.716801 -30.191999 -1014.21
52.7761 -29.401199 -1015.47
52.740501 -29.025 -1016.1
52.485401 -28.6308 -1016.68
52.5135 -28.3573 -1017.33
52.577702 -27.9468 -1017.96
52.314201 -27.685499 -1018.55
52.027599 -27.26 -1019.09
51.988499 -27.0301 -1019.75
51.817101 -26.697701 -1020.32
51.839401 -26.3466 -1020.94
51.517601 -26.0777 -1021.5
50.896999 -25.1528 -1023.27
50.491901 -24.335699 -1024.71
50.086399 -24.117001 -1025.12
50.041302 -23.816601 -1025.66
49.562401 -23.6502 -1026.08
49.374599 -23.378901 -1026.5699
49.264599 -23.086901 -1027.0699
49.018101 -22.860901 -1027.53
48.971901 -22.5485 -1028.04
48.650902 -22.3307 -1028.49
47.363998 -21.5065 -1030.27
46.877499 -20.7628 -1031.13
46.424801 -20.061701 -1031.87
46.079498 -20.370501 -1032.4399
44.408001 -19.114799 -1034.9399
43.5042 -18.6311 -1035.47
43.114601 -18.4153 -1036.45
42.528702 -17.841499 -1036.6
39.773399 -16.501499 -1039.49
38.5093 -16.1143 -1040.47
38.383598 -16.346701 -1041.02
33.855099 -14.5117 -1044.23
29.116699 -13.8426 -1046.64
28.275499 -13.5386 -1047.34
26.9664 -13.1041 -1048.12
25.7773 -13.0374 -1048.55
52.880299 -33.125999 -1008.08
53.2276 -32.543499 -1008.9
52.9506 -32.189098 -1009.6
53.393902 -31.5977 -1010.47
53.079899 -31.1838 -1011.24
53.2271 -30.360399 -1012.64
53.0625 -29.995701 -1013.3
52.9174 -29.563601 -1014.03
53.231899 -29.1339 -1014.78
52.754002 -28.8346 -1015.34
52.6931 -28.5306 -1015.91
52.584801 -28.225901 -1016.55
52.680698 -27.796801 -1017.19
52.382301 -27.5424 -1017.75
52.4235 -27.144899 -1018.41
52.0849 -26.850201 -1018.96
51.773899 -26.1213 -1020.12
51.457699 -24.6182 -1022.69
50.877102 -24.313999 -1023.7
50.558498 -23.793301 -1024.58
50.333801 -23.5436 -1025
49.898701 -23.204901 -1025.4
49.706402 -23.120899 -1025.9399
49.4832 -22.8351 -1026.4301
49.152 -22.323099 -1027.37
48.820499 -22.121201 -1027.84
48.435799 -21.776899 -1028.12
48.4496 -21.563 -1028.8
48.011799 -21.434299 -1029.22
47.735199 -21.183201 -1029.67
47.645599 -20.9065 -1030.17
47.204498 -20.4179 -1031.0699
45.796799 -19.6625 -1032.6801
45.805099 -19.3613 -1033.1899
44.1147 -18.242701 -1034.5601
42.437 -17.5571 -1037.03
40.512001 -16.7924 -1038.8199
40.192799 -16.160999 -1039
34.748402 -14.2377 -1043.46
34.2402 -14.3318 -1043.75
33.059799 -13.7636 -1044.65
32.285 -13.4865 -1045.25
29.1807 -13.3091 -1046.52
28.449301 -12.8491 -1047.1899
26.9548 -12.6443 -1048.14
53.016201 -32.139999 -1008.72
53.069199 -31.636 -1009.56
53.423302 -31.091299 -1010.29
53.178699 -30.795099 -1010.97
53.1483 -30.242599 -1011.86
53.166 -29.848101 -1012.49
53.167599 -29.430599 -1013.27
52.934299 -29.082701 -1013.95
52.995499 -28.692499 -1014.57
52.845299 -28.369101 -1015.16
52.6656 -28.045799 -1015.71
52.481098 -27.749901 -1016.34
52.442902 -27.3974 -1016.98
52.525299 -26.9503 -1017.61
52.320202 -26.6698 -1018.22
52.056999 -26.361799 -1018.77
51.847599 -26.049999 -1019.38
52.082298 -25.6161 -1020.03
51.844799 -25.319401 -1020.57
51.701 -25.0124 -1021.17
51.546299 -24.719601 -1021.73
51.126499 -24.092899 -1023.02
51.1115 -23.718399 -1023.6
50.6408 -23.257 -1024.45
49.681198 -22.5228 -1025.6801
49.557701 -22.3468 -1026.28
49.034302 -22.2138 -1026.6801
49.230999 -21.798201 -1027.24
48.742001 -21.319201 -1028.15
48.505001 -21.074499 -1028.65
48.283901 -20.819099 -1029.11
47.7831 -20.3566 -1030.03
47.3834 -20.1733 -1030.45
47.1917 -19.935101 -1030.9
46.6241 -19.687099 -1031.11
46.630402 -19.505199 -1031.73
46.276402 -19.3225 -1032.13
45.922798 -19.1556 -1032.55
45.299099 -18.4942 -1033.4
45.244202 -18.438999 -1033.89
43.846401 -17.7414 -1035.39
43.1031 -17.4286 -1036.1
41.9403 -16.790899 -1037
40.8983 -16.244801 -1038.14
38.787998 -15.5279 -1040.35
38.445301 -15.3565 -1040.6801
28.464199 -12.3745 -1047.02
26.9643 -11.8584 -1048.1
53.381199 -31.046 -1009.35
53.183498 -30.675699 -1010.09
53.104698 -30.261999 -1010.76
53.1572 -29.7927 -1011.67
53.2159 -29.364401 -1012.3
53.1894 -28.944599 -1013.01
52.967701 -28.5711 -1013.78
53.019001 -27.807699 -1015.01
52.7146 -27.529499 -1015.6
52.8946 -27.0818 -1016.27
52.755402 -26.7834 -1016.86
52.733002 -26.395 -1017.49
52.3367 -26.150101 -1018.06
52.290501 -25.7896 -1018.66
52.246601 -25.4126 -1019.28
52.053001 -25.131701 -1019.85
51.692101 -24.895201 -1020.37
51.736301 -24.497 -1020.99
51.597301 -24.1367 -1021.58
51.6133 -23.7815 -1022.26
51.482601 -23.411699 -1022.92
51.288601 -23.119101 -1023.47
51.070702 -22.874901 -1023.93
50.711102 -22.6938 -1024.3199
49.891399 -22.3603 -1024.89
50.000198 -22.010799 -1025.65
49.1008 -21.344 -1027.03
48.394798 -20.6138 -1028.4301
48.379101 -20.268999 -1028.95
48.0695 -20.0667 -1029.4
47.861198 -19.8304 -1029.86
47.322601 -19.699301 -1030.25
46.966 -19.3918 -1030.5601
46.812698 -19.2635 -1031.13
46.642799 -19.0028 -1031.5601
46.142799 -18.5627 -1032.42
44.493099 -17.607201 -1034.4399
43.148399 -16.9126 -1035.9399
42.108501 -16.4175 -1037.0699
40.6007 -15.7748 -1038.5
38.222698 -14.6496 -1040.88
37.566799 -14.4403 -1040.95
37.352798 -14.4013 -1041.5
35.301601 -13.8008 -1043.02
34.273499 -13.4852 -1043.26
28.5933 -11.7846 -1046.86
26.8923 -11.3802 -1047.88
25.865999 -11.4821 -1048.04
53.046001 -31.047899 -1008.31
53.255901 -30.533199 -1009.16
53.189098 -29.6831 -1010.77
53.199501 -29.271799 -1011.35
53.191299 -28.8253 -1012.09
53.229599 -28.415199 -1012.81
52.972198 -27.996599 -1013.58
52.987499 -27.6628 -1014.29
52.836399 -26.9799 -1015.44
52.8162 -26.584801 -1016.05
52.849701 -26.175301 -1016.71
52.557301 -25.923901 -1017.27
52.308201 -25.635099 -1017.86
52.157101 -25.322001 -1018.37
52.312599 -24.867901 -1019.11
51.867199 -24.2962 -1020.24
51.756199 -23.584499 -1021.46
51.8181 -23.195 -1022.12
51.397301 -22.9282 -1022.72
51.313 -22.5655 -1023.31
49.758099 -21.5023 -1025.33
49.597599 -21.2953 -1025.91
49.454899 -21.0172 -1026.41
49.423801 -20.7029 -1026.9301
48.9081 -20.5637 -1027.33
48.751202 -20.282301 -1027.8101
48.335701 -20.0445 -1028.11
48.3675 -19.774099 -1028.78
48.059399 -19.5298 -1029.22
47.3708 -19.1462 -1030.0699
47.259102 -18.893299 -1030.55
47.087898 -18.6394 -1030.99
46.535198 -18.542 -1031.33
46.148899 -18.222 -1031.67
45.886398 -18.1423 -1032.17
46.001202 -17.778099 -1032.6899
44.3792 -17.1273 -1034.26
42.692799 -15.9737 -1036.54
40.764801 -15.215 -1038.36
40.500599 -15.0207 -1038.7
38.944599 -14.4382 -1040.03
37.216599 -13.7821 -1041.1
35.589298 -13.2702 -1042.3
34.451302 -13.0588 -1043.4301
27.3832 -11.6835 -1047.3
26.0865 -11.0291 -1048.09
53.0345 -30.557699 -1008.13
53.332802 -29.9825 -1008.98
53.435398 -29.514601 -1009.75
53.183102 -29.2717 -1010.41
53.2617 -28.682301 -1011.41
53.260799 -27.868999 -1012.76
52.977001 -27.1381 -1014.04
52.889301 -26.8487 -1014.64
52.919899 -26.4126 -1015.3
53.0229 -26.0012 -1015.95
52.601398 -25.7703 -1016.47
52.504002 -25.4251 -1017.06
52.363602 -25.0648 -1017.7
52.576698 -24.6359 -1018.37
51.781799 -23.2855 -1020.86
51.6609 -23.1243 -1021.25
51.513699 -22.3957 -1022.52
49.799198 -20.715 -1025.78
49.584 -20.4538 -1026.25
49.088299 -20.261101 -1026.58
48.6264 -19.7446 -1027.53
48.5289 -19.5191 -1028.11
48.150299 -19.004101 -1029.05
47.910599 -18.7775 -1029.49
47.3764 -18.644699 -1029.91
46.9473 -18.1835 -1030.79
46.104698 -17.5604 -1032.03
45.923698 -17.318199 -1032.49
44.376598 -16.613899 -1034.0699
40.84 -14.6646 -1038.1801
38.963699 -13.9398 -1039.85
32.304699 -11.7809 -1044.45
53.233799 -28.6262 -1010.26
53.3395 -27.216999 -1012.74
53.421101 -26.844101 -1013.29
53.1348 -26.527901 -1013.9
53.071301 -26.2048 -1014.53
52.845901 -25.914 -1015.08
52.9025 -25.5217 -1015.74
52.3936 -25.3272 -1016.24
52.721901 -24.8179 -1016.94
52.530998 -24.518101 -1017.54
52.283901 -24.2227 -1018.12
52.186199 -23.8619 -1018.72
52.270401 -23.474701 -1019.34
52.027199 -23.2218 -1019.9
51.907398 -22.8867 -1020.47
51.725399 -22.5844 -1021.04
51.552601 -22.278099 -1021.64
51.770199 -21.7843 -1022.37
51.498901 -21.510201 -1022.97
50.581902 -20.8578 -1024.26
49.893398 -20.5049 -1025.08
49.920898 -20.152599 -1025.62
49.538399 -19.984301 -1026.0601
49.1464 -19.667801 -1026.47
48.9734 -19.196899 -1027.5
48.528198 -18.9979 -1027.92
48.4235 -18.7383 -1028.42
47.6451 -18.041401 -1029.77
46.1782 -16.9835 -1031.92
46.022598 -16.726601 -1032.37
45.791901 -16.479099 -1032.8199
44.3311 -16.1038 -1033.87
43.3456 -15.2978 -1035.4301
43.001598 -15.1457 -1035.8
42.420898 -14.7393 -1036.58
42.0364 -14.5885 -1036.9399
40.858799 -14.1451 -1038
37.500702 -12.8022 -1040.97
33.3466 -11.6312 -1043.98
53.041302 -27.759199 -1010.78
53.284401 -26.8344 -1012.29
53.168598 -25.2768 -1014.99
53.0872 -24.9541 -1015.62
52.812401 -24.2883 -1016.78
52.441898 -24.003099 -1017.33
52.610401 -23.580601 -1018
52.430401 -23.291401 -1018.58
52.271301 -22.985701 -1019.17
52.005402 -22.7164 -1019.72
52.0284 -22.337999 -1020.31
51.6768 -21.9576 -1020.92
51.785198 -21.2712 -1022.21
51.558899 -20.9645 -1022.79
50.807098 -20.606199 -1023.68
49.900002 -19.990299 -1024.91
49.858501 -19.6639 -1025.4301
49.397301 -19.4382 -1025.7
49.276699 -18.905001 -1026.84
