# .PCD v0.7 - Point Cloud Data file format
VERSION 0.7
FIELDS x y z
SIZE 4 4 4
TYPE F F F
COUNT 1 1 1
WIDTH 1655
HEIGHT 1
VIEWPOINT 0 0 0 1 0 0 0
POINTS 1655
DATA ascii
-18.3232 -18.694599 -1044.34
-18.6805 -18.584299 -1043.95
-19.488001 -18.3379 -1043.75
-20.1185 -18.1992 -1043.36
-20.370199 -18.424999 -1042.8101
-20.9286 -18.344 -1042.36
-21.461901 -18.178699 -1042.0601
-21.9011 -18.1611 -1041.66
-23.179001 -18.072599 -1040.4301
-23.5394 -18.213499 -1039.78
-24.122601 -18.181499 -1039.28
-24.966299 -18.245501 -1037.98
-25.6136 -18.288099 -1037.13
-26.5436 -18.262199 -1036.22
-26.896099 -18.253599 -1035.79
-27.494101 -18.308901 -1034.92
-27.7582 -18.3424 -1034.5
-28.232201 -18.3279 -1034.01
-28.524799 -18.478201 -1033.16
-29.040001 -18.457199 -1032.64
-29.6311 -18.6812 -1031.38
-30.1537 -18.642099 -1030.89
-30.6674 -18.6056 -1030.4
-31.3405 -18.693899 -1029.64
-31.622499 -18.614599 -1029.21
-32.271801 -18.753401 -1028.1899
-32.598499 -19.1003 -1027.17
-32.704498 -19.056499 -1026.7
-33.074501 -19.217899 -1025.6801
-33.6119 -19.3724 -1024.67
-34.0313 -19.673 -1023.3
-34.467499 -19.9468 -1022.46
-34.498001 -20.1042 -1021.41
-35.059799 -20.1038 -1020.86
-35.8368 -20.5436 -1018.5
-36.5471 -20.816 -1017.34
-36.023102 -21.1467 -1016.48
-37.084702 -21.473801 -1015.12
-37.259899 -21.667299 -1013.54
-37.842201 -22.083 -1012.31
-37.7299 -22.1845 -1010.48
-37.932201 -22.667101 -1009.69
-37.607498 -23.967199 -1005.33
-37.920799 -24.501101 -1004.24
-8.3503399 -19.8414 -1049.87
-9.3100004 -19.824699 -1049.59
-9.8029804 -19.572001 -1049.2
-10.5339 -19.4443 -1048.83
-11.3483 -19.406 -1048.49
-12.0812 -19.2477 -1048.1
-12.7003 -19.131201 -1047.72
-13.8924 -18.812901 -1046.9301
-15.0057 -18.6919 -1046.09
-15.7991 -18.622299 -1045.83
-16.273899 -18.537399 -1045.46
-17.5945 -18.2953 -1044.61
-17.994699 -18.1938 -1044.22
-19.299101 -17.865499 -1043.59
-19.969101 -17.9091 -1043.0699
-20.4429 -17.751801 -1042.73
-20.7505 -17.860399 -1042.27
-21.152599 -17.8925 -1041.83
-21.7747 -17.816601 -1041.28
-21.879 -17.923201 -1040.9
-22.5553 -17.8095 -1040.45
-23.241501 -17.8016 -1039.63
-24.534401 -17.6499 -1038.4399
-25.2791 -17.761499 -1037.46
-25.755899 -17.7409 -1036.99
-25.8773 -17.8009 -1036.59
-26.3617 -17.802999 -1036.13
-26.965599 -17.8167 -1035.29
-28.2227 -17.7868 -1034.0601
-28.6646 -17.9347 -1033.04
-29.0952 -17.914101 -1032.54
-29.587299 -18.037201 -1031.63
-30.655899 -18.090599 -1030.27
-31.639 -18.103001 -1029.0699
-31.7514 -18.236 -1028.58
-32.330601 -18.743401 -1026.86
-32.612598 -18.6845 -1026.1899
-33.713799 -19.1187 -1023.67
-34.001301 -19.282101 -1023.31
-34.345798 -19.4904 -1022.27
-34.704201 -19.723801 -1021.25
-34.870998 -19.6262 -1020.78
-35.270901 -20.009001 -1019.8
-35.4734 -20.0063 -1018.9
-35.756802 -20.0623 -1018.41
-36.720501 -20.5445 -1015.9
-37.192501 -20.8503 -1015.09
-37.3232 -20.949699 -1013.9
-37.466599 -21.9631 -1010.66
-37.772301 -22.2101 -1009.55
-37.555901 -22.919399 -1006.9
-9.3871498 -19.253799 -1049.46
-10.0656 -19.1052 -1049.11
-10.787 -18.9512 -1048.74
-11.4846 -18.823799 -1048.36
-12.133 -18.693899 -1047.98
-12.597 -18.5137 -1047.58
-13.244 -18.391001 -1047.22
-13.9109 -18.4195 -1046.84
-14.431 -18.3347 -1046.48
-15.0352 -18.237499 -1046.0699
-15.5122 -18.075701 -1045.61
-16.223499 -18.043501 -1045.29
-16.716499 -17.98 -1044.92
-17.326 -17.890301 -1044.5
-17.975901 -17.7754 -1044.0699
-18.5793 -17.494801 -1043.8199
-19.193501 -17.5814 -1043.34
-19.839701 -17.4491 -1042.96
-20.499001 -17.329901 -1042.5
-20.7784 -17.379801 -1042.1
-21.1696 -17.3587 -1041.62
-21.624201 -17.1765 -1041.38
-22.6866 -17.3468 -1039.95
-23.371599 -17.107901 -1039.73
-23.598 -17.3016 -1039.05
-24.061199 -17.2623 -1038.6
-24.490499 -17.240601 -1038.1899
-24.8372 -17.233601 -1037.78
-25.2038 -17.260799 -1037.37
-25.579599 -17.2505 -1036.9399
-25.9911 -17.240299 -1036.47
-26.612101 -17.311701 -1035.59
-26.878099 -17.341999 -1035.17
-27.760099 -17.3081 -1034.27
-28.1287 -17.321199 -1033.8199
-29.033501 -17.418699 -1032.46
-29.461901 -17.557699 -1031.5699
-30.232201 -17.620501 -1030.71
-30.4793 -17.629499 -1030.1801
-30.8634 -17.639601 -1029.73
-31.1029 -17.7773 -1029.3101
-31.507 -17.634701 -1028.98
-32.652699 -17.8862 -1026.95
-32.284199 -18.2089 -1026.8101
-32.8923 -18.077801 -1026.02
-33.937599 -18.667101 -1023.09
-34.366798 -18.974701 -1022.21
-34.544102 -19.0483 -1021.19
-34.826199 -19.0902 -1020.69
-35.941002 -19.642799 -1018.4
-36.181099 -19.9552 -1017.3
-36.421902 -19.9303 -1016.37
-37.0233 -20.2213 -1014.84
-37.312801 -21.222401 -1010.54
-37.509201 -21.7969 -1009.45
-37.5951 -22.5219 -1008.05
-37.6073 -23.523899 -1003.96
-37.410099 -23.951799 -1002.35
-35.758701 -27.290701 -994.711
-35.704102 -27.570499 -993.38898
-9.0536499 -18.8111 -1049.4301
-9.9453697 -18.628 -1049.04
-10.6935 -18.4688 -1048.65
-11.4577 -18.0347 -1048.47
-12.0333 -18.2169 -1047.89
-12.585 -18.1318 -1047.52
-13.1712 -18.0308 -1047.13
-13.7986 -17.9251 -1046.72
-14.3534 -17.833 -1046.34
-15.0618 -17.713301 -1045.9301
-15.6805 -17.4212 -1045.6801
-17.3979 -17.3433 -1044.35
-18.0201 -17.2609 -1043.92
-18.5168 -17.194099 -1043.52
-19.0588 -16.9571 -1043.3
-19.671801 -17.0266 -1042.79
-20.0184 -17.026199 -1042.41
-20.4883 -16.9785 -1041.95
-20.997999 -16.937599 -1041.48
-21.385599 -16.9268 -1041.0601
-21.6887 -16.948601 -1040.64
-22.147499 -16.899401 -1040.23
-22.7521 -16.760401 -1039.9399
-23.469 -16.815701 -1038.96
-23.913601 -16.830099 -1038.52
-24.443199 -16.7745 -1038.08
-25.249599 -16.7295 -1037.24
-25.5235 -16.752501 -1036.8199
-25.9778 -16.7397 -1036.37
-26.347099 -16.7672 -1035.92
-26.808201 -16.8641 -1035.04
-27.9725 -16.863001 -1033.72
-28.8347 -16.818199 -1033.02
-29.139601 -16.8589 -1032.5601
-29.716801 -16.9671 -1031.42
-29.6555 -17.104601 -1031.04
-29.941099 -17.138599 -1030.5699
-30.368099 -17.150801 -1030.09
-30.6866 -17.1724 -1029.65
-31.3207 -17.089199 -1029.22
-31.714001 -17.0432 -1029.05
-31.883499 -17.301201 -1028.37
-32.514999 -17.428699 -1026.85
-33.1436 -17.6381 -1025.42
-33.568802 -17.8137 -1024.39
-33.924 -18.1453 -1022.99
-34.212002 -18.330601 -1022.04
-34.527401 -18.5665 -1021.08
-34.950699 -18.715599 -1020.67
-35.538799 -19.217899 -1018.63
-36.5812 -19.213499 -1016.77
-36.9692 -19.735901 -1014.74
-37.239399 -20.508301 -1011.98
-37.612099 -21.1696 -1010.31
-37.550201 -22.4128 -1006.83
-37.303001 -24.3776 -1001.2
-9.1585102 -18.245001 -1049.29
-9.9975004 -18.060499 -1048.9
-10.4989 -17.8671 -1048.48
-11.3659 -17.8034 -1048.14
-11.9759 -17.702299 -1047.75
-12.5854 -17.591999 -1047.36
-13.2628 -17.455601 -1046.95
-13.8474 -17.2141 -1046.65
-14.4948 -17.243601 -1046.2
-15.1703 -17.1119 -1045.8101
-15.8459 -16.803499 -1045.67
-16.139999 -17.0334 -1045.08
-16.7395 -16.923201 -1044.65
-17.3339 -16.8836 -1044.22
-18.0245 -16.5126 -1044.1
-18.388901 -16.708099 -1043.42
-18.938601 -16.653299 -1043.03
-19.479401 -16.572599 -1042.62
-19.875401 -16.5418 -1042.21
-20.814899 -16.470699 -1041.37
-21.262899 -16.3922 -1040.9301
-21.843399 -16.2563 -1040.66
-22.210899 -16.363199 -1040.1
-23.1362 -16.2805 -1039.28
-23.671 -16.1443 -1038.97
-23.9891 -16.264601 -1038.38
-24.308201 -16.287399 -1037.98
-24.8027 -16.237499 -1037.5601
-25.257299 -16.186399 -1037.12
-25.6563 -16.181299 -1036.6899
-25.866699 -16.2458 -1036.3
-26.716299 -16.220301 -1035.47
-26.878401 -16.3025 -1034.92
-27.264 -16.3106 -1034.46
-27.4524 -16.3927 -1034.04
-27.976299 -16.378901 -1033.64
-28.510401 -16.538799 -1032.64
-28.944901 -16.4016 -1032.24
-29.8461 -16.5182 -1030.89
-30.564899 -16.566601 -1029.96
-30.6553 -16.6614 -1029.54
-31.177799 -16.612301 -1029.11
-31.5137 -16.6073 -1028.72
-31.813 -16.679399 -1028.2
-32.3377 -17.082199 -1026.76
-32.849701 -17.207199 -1025.35
-33.300301 -17.547899 -1024.36
-33.603699 -17.701799 -1022.94
-34.739101 -18.0998 -1020.47
-35.2696 -18.4046 -1019.6
-35.505402 -18.4562 -1018.57
-37.016399 -18.8407 -1015.61
-36.9548 -19.1882 -1014.61
-37.407799 -20.459499 -1010.25
-37.250401 -20.8354 -1009.26
-36.929401 -24.945601 -998.229
-9.0526695 -17.7017 -1049.1801
-9.8706703 -17.5201 -1048.8
-10.5963 -17.398199 -1048.42
-11.205 -17.2964 -1048.04
-12.0303 -16.8965 -1047.8199
-12.7718 -16.9802 -1047.2
-13.3116 -16.8748 -1046.85
-13.9688 -16.756001 -1046.48
-14.5428 -16.497801 -1046.23
-15.1484 -16.5741 -1045.72
-15.6031 -16.5345 -1045.35
-16.221701 -16.4484 -1044.9301
-16.667601 -16.327101 -1044.5
-17.396299 -16.076401 -1044.33
-17.9265 -16.0044 -1043.91
-18.4562 -16.1215 -1043.29
-18.975201 -15.9404 -1043.02
-19.935699 -15.8558 -1042.23
-21.267099 -15.8809 -1040.84
-21.7003 -15.8711 -1040.4
-22.250999 -15.7942 -1039.96
-22.6556 -15.7669 -1039.58
-23.0735 -15.7741 -1039.1801
-23.634501 -15.6791 -1038.71
-23.9536 -15.6891 -1038.29
-24.1987 -15.7506 -1037.86
-24.8188 -15.5798 -1037.62
-25.0352 -15.7195 -1037.04
-25.5464 -15.6508 -1036.58
-25.877899 -15.7183 -1036.17
-26.3922 -15.6404 -1035.67
-26.5282 -15.7346 -1035.27
-26.7719 -15.7827 -1034.8199
-27.5975 -15.7796 -1033.9
-27.9823 -15.7934 -1033.4301
-28.113199 -15.8677 -1033.02
-28.627399 -15.8206 -1032.72
-28.9977 -15.8287 -1032.33
-29.4265 -15.9675 -1031.26
-29.9139 -16.068501 -1030.35
-30.2535 -16.091101 -1029.89
-30.568899 -16.132799 -1029.4399
-31.127701 -16.0798 -1028.99
-31.6047 -16.0208 -1028.5699
-32.0844 -16.257 -1027.74
-32.2015 -16.4098 -1026.65
-32.860802 -16.5117 -1025.6801
-33.148602 -16.5786 -1025.15
-33.699001 -16.835699 -1024.1
-33.541599 -17.2495 -1023.22
-33.6796 -17.153 -1022.8
-34.247299 -17.4228 -1021.88
-34.389999 -17.5249 -1020.88
-35.195099 -17.902 -1019.45
-35.677601 -17.930799 -1018.06
-35.8988 -17.975201 -1017.63
-36.473099 -17.975599 -1017.11
-36.876701 -18.320601 -1015.51
-37.0247 -18.834299 -1014.57
-37.054901 -19.157101 -1012.79
-37.183998 -19.4638 -1011.74
-37.2556 -20.2815 -1009.1
-37.3153 -20.909901 -1008.14
-37.2421 -20.815201 -1007.54
-9.8076801 -17.0042 -1048.6801
-10.5198 -16.8531 -1048.3
-11.2195 -16.722799 -1047.9
-12.6494 -16.440201 -1047.12
-13.8632 -16.0676 -1046.4301
-14.5361 -16.122999 -1046
-14.9681 -16.077499 -1045.64
-15.5899 -16.001301 -1045.21
-16.7243 -15.6634 -1044.55
-17.2684 -15.6075 -1044.08
-17.792999 -15.6657 -1043.62
-18.3585 -15.6048 -1043.2
-18.9732 -15.5584 -1042.76
-19.3335 -15.495 -1042.34
-19.940599 -15.2686 -1042.15
-20.466299 -15.3339 -1041.53
-20.8876 -15.3199 -1041.13
-21.6094 -15.3339 -1040.3101
-22.1082 -15.2649 -1039.89
-23.163 -15.165 -1039.03
-23.6126 -15.143 -1038.59
-23.964701 -15.1483 -1038.17
-24.335199 -15.1466 -1037.7
-25.0518 -15.2065 -1036.89
-25.433599 -15.1548 -1036.46
-25.963301 -15.0732 -1036.2
-26.5161 -15.1932 -1035.14
-27.011 -15.1378 -1034.8101
-27.165701 -15.2564 -1034.24
-28.058701 -15.1788 -1033.54
-28.5378 -15.312 -1032.4399
-28.9312 -15.3294 -1032.15
-29.5446 -15.3886 -1031.1
-30.0231 -15.4912 -1030.21
-30.4855 -15.5523 -1029.87
-30.9247 -15.7616 -1028.8101
-31.433001 -15.5568 -1028.46
-32.264 -16.0273 -1026.54
-33.057598 -16.3783 -1024.0699
-33.666401 -16.611601 -1022.67
-34.232201 -16.7377 -1021.68
-34.384499 -16.992201 -1020.75
-34.5854 -17.063101 -1020.27
-35.1208 -17.4093 -1019.25
-36.188801 -17.3466 -1018.16
-36.392601 -17.5082 -1017.58
-37.014301 -17.7421 -1015.37
-36.966999 -18.1168 -1014.3
-37.0499 -18.6332 -1012.63
-37.261002 -19.1422 -1011.56
-37.185699 -19.6548 -1010.22
-37.1077 -20.317101 -1007.45
-5.0250201 -17.8235 -1050.85
-12.5468 -15.8952 -1047.01
-13.2333 -15.5786 -1046.73
-13.9283 -15.6501 -1046.24
-14.3961 -15.5864 -1045.88
-15.0043 -15.3447 -1045.53
-15.5278 -15.2627 -1045.15
-16.616199 -15.2802 -1044.29
-17.2253 -15.1838 -1043.89
-17.636999 -15.1212 -1043.38
-18.400801 -15.0182 -1043.04
-18.880301 -14.9939 -1042.61
-19.819201 -14.8704 -1041.86
-20.3113 -14.8296 -1041.45
-20.7782 -14.7893 -1041.03
-22.0837 -14.717 -1039.73
-22.5797 -14.6607 -1039.33
-23.1443 -14.5995 -1038.9
-23.572001 -14.5963 -1038.48
-24.015499 -14.4981 -1038.1801
-24.384399 -14.5749 -1037.58
-24.741501 -14.5103 -1037.33
-25.059 -14.6121 -1036.73
-25.5474 -14.464 -1036.5601
-25.7556 -14.6144 -1035.89
-26.2376 -14.5678 -1035.4301
-26.8881 -14.6261 -1034.55
-27.885201 -14.6946 -1033.22
-28.506001 -14.7488 -1032.33
-29.128799 -14.8081 -1031.4399
-29.304701 -14.8851 -1031.02
-29.8081 -14.9857 -1030.12
-31.4291 -14.9997 -1028.29
-32.054401 -15.096 -1027.59
-33.1422 -15.91 -1023.5
-33.7351 -16.0229 -1022.5
-33.8596 -16.2698 -1021.63
-34.395302 -16.3981 -1020.63
-34.783298 -16.3878 -1020.13
-35.712601 -16.661301 -1018.92
-36.301899 -16.7652 -1018.01
-36.817699 -17.4541 -1015.4
-37.015099 -17.666599 -1014.47
-36.680801 -18.1583 -1012.57
-37.225101 -18.328199 -1011.46
-37.094501 -18.878901 -1009.95
-37.109699 -19.197201 -1008.88
-37.256599 -20.028099 -1006.2
-37.045502 -20.4825 -1005.15
-12.6654 -15.2885 -1046.86
-13.1505 -15.2406 -1046.49
-13.7667 -15.1204 -1046.08
-14.4373 -14.9782 -1045.6899
-15.0472 -14.8793 -1045.3101
-15.7932 -14.757 -1044.88
-16.299601 -14.6911 -1044.51
-16.7474 -14.6394 -1044.14
-17.1849 -14.5983 -1043.76
-17.829901 -14.4936 -1043.3101
-18.1269 -14.5278 -1042.92
-18.688801 -14.4549 -1042.51
-19.3148 -14.3425 -1042.11
-19.8437 -14.2035 -1041.8101
-20.7519 -14.1673 -1040.9399
-21.236 -14.1708 -1040.46
-21.613899 -14.1555 -1040.08
-22.251699 -14.0817 -1039.5699
-22.6091 -14.0945 -1039.1899
-23.0079 -14.0693 -1038.79
-23.5294 -14.0316 -1038.34
-23.903299 -14.0133 -1037.92
-24.1686 -14.0415 -1037.5
-25.0616 -14.0256 -1036.61
-25.490299 -14.0009 -1036.16
-25.9758 -14.0871 -1035.34
-26.427299 -14.077 -1034.89
-26.7833 -14.0926 -1034.4301
-27.5991 -14.0784 -1033.6801
-27.910101 -14.1456 -1033.24
-28.489799 -14.2421 -1032.29
-28.7271 -14.2448 -1031.78
-29.3741 -14.4089 -1030.88
-30.1227 -14.3644 -1030.09
-30.565901 -14.3217 -1029.42
-31.5306 -14.6027 -1027.84
-33.179401 -14.9946 -1024.76
-33.0877 -15.3622 -1023.39
-33.515099 -15.532 -1022.44
-34.079201 -15.6027 -1021.47
-34.436401 -15.7297 -1020.56
-35.147598 -15.8022 -1019.68
-35.523602 -15.8082 -1019.21
-35.838001 -15.997 -1018.31
-36.843601 -16.8127 -1015.37
-37.134201 -18.2908 -1009.8
-37.1493 -18.625401 -1008.76
-37.312 -19.348301 -1007.36
-37.368999 -19.6553 -1006.26
-37.080399 -20.0597 -1004.46
-36.4585 -22.683201 -996.39301
-30.468201 -29.7472 -981.789
-11.1932 -14.9531 -1047.55
-12.3981 -14.7964 -1046.78
-12.9501 -14.6281 -1046.3199
-13.545 -14.4656 -1045.98
-14.3242 -14.4505 -1045.55
-14.879 -14.3543 -1045.21
-15.6033 -14.2259 -1044.8
-16.065399 -14.183 -1044.42
-16.651899 -14.119 -1044.01
-17.851601 -13.9298 -1043.14
-18.691999 -13.8357 -1042.4
-19.2379 -13.7599 -1041.99
-19.7687 -13.6612 -1041.65
-20.1478 -13.7211 -1041.1899
-20.6833 -13.657 -1040.75
-21.0294 -13.6682 -1040.35
-21.625099 -13.5107 -1040.01
-21.994499 -13.5962 -1039.52
-22.5856 -13.4449 -1039.21
-23.0144 -13.4912 -1038.64
-23.4454 -13.4709 -1038.2
-23.862801 -13.4646 -1037.79
-24.6495 -13.3929 -1037.05
-24.766199 -13.5356 -1036.53
-25.3771 -13.4758 -1036.04
-26.158001 -13.4413 -1035.1801
-26.5145 -13.4403 -1034.74
-27.35 -13.4356 -1033.8101
-27.695601 -13.4263 -1033.67
-28.3097 -13.784 -1032.03
-28.8248 -13.6448 -1031.59
-28.965099 -13.7287 -1031.2
-29.3748 -13.733 -1030.74
-29.8692 -13.6915 -1030.24
-31.541201 -13.9588 -1027.55
-31.461901 -14.1546 -1027.14
-31.9501 -14.4125 -1026.14
-32.161701 -14.498 -1025.11
-32.9729 -14.8444 -1023.71
-33.313499 -14.8242 -1023.39
-33.3074 -14.8201 -1022.78
-34.300499 -14.906 -1021.4
-34.614601 -14.9293 -1020.97
-35.149101 -15.0612 -1020.07
-35.592499 -15.056 -1019.58
-36.069801 -15.3574 -1018.17
-36.3932 -15.7304 -1016.62
-36.7132 -17.009399 -1012.29
-36.728802 -17.334801 -1011.3
-37.180698 -18.888399 -1005.98
-37.157101 -19.434099 -1004.32
-12.2539 -14.104 -1046.6
-12.8386 -14.1719 -1046.16
-13.6669 -14.0143 -1045.74
-14.3832 -13.8739 -1045.41
-15.0376 -13.7504 -1045.0601
-15.4552 -13.6989 -1044.7
-15.9045 -13.6527 -1044.3199
-16.627701 -13.3422 -1044.01
-17.24 -13.4409 -1043.45
-18.0403 -13.3322 -1042.62
-18.7258 -13.2755 -1042.28
-19.242701 -13.1465 -1041.9
-19.728399 -13.1777 -1041.45
-20.241199 -13.1406 -1041.02
-21.148701 -13.0598 -1040.1899
-21.483 -13.055 -1039.8101
-22.033501 -13.0108 -1039.39
-22.2925 -13.0193 -1039.01
-22.8325 -12.9745 -1038.51
-23.3312 -12.9591 -1038.05
-24.216499 -12.9082 -1037.25
-24.6106 -12.8244 -1036.95
-25.8701 -13.0118 -1035.0601
-26.499001 -12.8708 -1034.63
-27.8627 -12.9937 -1032.97
-28.007601 -13.2094 -1031.96
-28.535299 -13.1961 -1031.5601
-29.739901 -13.3125 -1029.66
-31.191999 -13.5107 -1027.46
-31.594 -13.5298 -1026.9301
-32.090099 -13.675 -1025.87
-32.160301 -13.9417 -1024.97
-32.410301 -14.1232 -1024.09
-33.627102 -14.101 -1022.74
-34.107101 -14.0893 -1022.3
-34.345001 -14.16 -1021.88
-34.562 -14.2194 -1021.42
-35.0994 -14.3498 -1020.47
-35.049599 -14.4787 -1020.03
-35.661598 -14.5916 -1019.64
-35.545898 -14.6356 -1019.07
-36.257401 -14.8589 -1017.53
-36.728901 -15.2779 -1016.35
-36.200901 -15.5529 -1015.45
-36.546299 -16.1639 -1013.92
-36.5718 -16.473101 -1012.18
-36.764801 -16.738501 -1011.15
-37.054001 -17.351999 -1009.81
-36.888599 -17.555799 -1008.56
-37.045502 -18.156401 -1007.51
-37.253201 -18.1625 -1007.15
-37.285 -18.509501 -1006.03
-12.2209 -13.48 -1046.65
-13.0261 -13.5983 -1045.99
-13.4235 -13.5537 -1045.6899
-14.0017 -13.4485 -1045.38
-14.8492 -13.2493 -1044.97
-15.4981 -13.1459 -1044.55
-16.1264 -12.8181 -1044.4
-16.596701 -13.0028 -1043.76
-17.2533 -12.912 -1043.35
-17.6681 -12.7517 -1043.0601
-18.292801 -12.7957 -1042.5601
-18.6677 -12.78 -1042.17
-19.365801 -12.4634 -1041.98
-19.7306 -12.6657 -1041.33
-20.272499 -12.4113 -1041.1
-20.5126 -12.6081 -1040.51
-21.0487 -12.5744 -1040.1
-21.5753 -12.523 -1039.6801
-22.1024 -12.3265 -1039.4399
-22.6031 -12.5665 -1038.41
-23.298901 -12.4839 -1037.89
-24.0588 -12.5662 -1036.73
-24.6434 -12.5212 -1036.21
-25.0515 -12.4403 -1035.87
-26.4419 -12.3943 -1034.51
-27.2903 -12.2896 -1033.9399
-28.5149 -12.6862 -1031.3101
-28.7824 -13.0173 -1030.23
-30.0105 -12.8617 -1029.01
-30.5737 -12.9604 -1028.11
-31.07 -13.1435 -1027.3199
-31.364599 -13.0892 -1026.85
-31.817301 -13.2365 -1025.79
-32.273102 -13.4093 -1024.84
-32.587399 -13.503 -1024.5601
-32.798199 -13.4093 -1023.96
-33.826 -13.4158 -1023.42
-34.688801 -13.6506 -1021.35
-35.210098 -13.9367 -1020.46
-35.570301 -14.1024 -1018.96
-36.098301 -14.3961 -1017.41
-36.463402 -14.6227 -1016.33
-36.447399 -15.1582 -1015.39
-36.470501 -15.654 -1013.86
-36.550701 -15.9703 -1012.07
-36.639198 -15.974 -1011.07
-36.8284 -16.723101 -1009.48
-37.2332 -17.808201 -1005.73
-37.272202 -18.9401 -1003.16
-36.0872 -21.3431 -996.146
-10.0278 -13.6835 -1047.41
-10.5723 -13.5887 -1047.09
-11.306 -13.4625 -1046.71
-12.1096 -13.282 -1046.28
-14.1138 -12.9013 -1045.21
-14.7586 -12.7787 -1044.86
-15.4545 -12.4187 -1044.65
-16.070499 -12.5733 -1044
-16.530001 -12.2766 -1043.88
-17.1891 -12.4049 -1043.25
-17.7043 -12.3572 -1042.87
-18.2458 -12.3091 -1042.42
-18.724701 -12.1185 -1042.2
-19.186501 -12.2048 -1041.62
-19.74 -12.1344 -1041.1899
-20.190201 -12.0773 -1040.78
-20.617001 -12.0821 -1040.39
-21.053499 -12.0371 -1039.99
-21.650999 -11.979 -1039.5699
-23.187799 -11.9659 -1037.75
-23.9252 -12.0017 -1036.92
-25.0532 -11.8615 -1035.85
-25.725401 -12.0215 -1034.77
-26.9617 -11.9736 -1033.48
-27.2435 -11.9662 -1033.1899
-27.649799 -12.0153 -1032.55
-27.9792 -12.2006 -1031.65
-28.5044 -12.1034 -1031.4399
-28.938499 -12.4229 -1029.89
-29.4737 -12.4476 -1029.39
-29.665199 -12.4439 -1028.9301
-30.5425 -12.4532 -1027.98
-31.0425 -12.5354 -1027.1899
-31.499001 -12.523 -1026.6899
-31.9286 -12.6913 -1025.66
-32.123199 -12.857 -1024.77
-33.245998 -12.764 -1023.94
-33.4589 -12.8411 -1023.54
-34.188 -13.0146 -1022.18
-34.671299 -13.3316 -1021.23
-34.993301 -13.3322 -1020.3
-35.503101 -13.423 -1019.98
-36.1633 -13.8866 -1017.27
-36.5443 -15.6136 -1012.2
-36.872002 -16.182699 -1009.35
-36.983002 -16.719801 -1008.43
-37.016998 -17.871201 -1004.01
-9.2281504 -13.0446 -1047.87
-9.8800697 -12.9759 -1047.4301
-11.2662 -12.9544 -1046.5601
-11.8454 -12.8464 -1046.2
-12.5468 -12.7243 -1045.8
-13.2917 -12.5879 -1045.41
-13.9554 -12.4373 -1045.0699
-14.6194 -12.3201 -1044.71
-15.2418 -12.2632 -1044.29
-15.6672 -12.2046 -1043.89
-16.2722 -12.0854 -1043.5
-16.9146 -11.9772 -1043.15
-18.0439 -11.8687 -1042.29
-18.5049 -11.6772 -1042
-19.102301 -11.7264 -1041.48
-19.700199 -11.419 -1041.37
-20.032 -11.6174 -1040.7
-20.535601 -11.5964 -1040.29
-21.5047 -11.5038 -1039.47
-21.999599 -11.3643 -1039.1899
-23.1 -11.3982 -1037.88
-23.593901 -11.5825 -1036.83
-24.8955 -11.5268 -1035.5
-25.2271 -11.5531 -1035.0699
-25.658899 -11.506 -1034.8
-26.848801 -11.4863 -1033.5601
-27.6036 -11.6808 -1031.99
-28.354099 -11.6954 -1031.26
-28.762899 -11.9841 -1030.13
-29.9072 -11.8853 -1028.77
-31.3424 -12.1433 -1026.72
-31.686199 -12.2406 -1025.58
-32.633499 -12.2824 -1024.39
-33.113499 -12.2696 -1023.94
-33.408798 -12.3127 -1023.48
-34.380501 -12.5086 -1022.27
-34.436798 -12.5637 -1021.62
-34.9911 -13.0679 -1020.09
-36.0075 -13.2011 -1018.16
-36.205399 -13.3743 -1017.11
-36.290298 -14.5316 -1013.37
-36.780602 -14.9938 -1010.53
-37.060902 -16.802601 -1005.54
-36.895802 -17.410999 -1003.94
-9.0812998 -12.8626 -1047.55
-9.8202496 -12.701 -1047.17
-10.4986 -12.5756 -1046.8
-11.2092 -12.4384 -1046.4301
-11.8319 -12.3154 -1046.0601
-12.5157 -12.0237 -1045.75
-13.1464 -11.9178 -1045.35
-13.7326 -12.0087 -1044.9399
-14.2112 -11.9624 -1044.59
-15.058 -11.7762 -1044.12
-15.6916 -11.6633 -1043.7
-16.055599 -11.5443 -1043.39
-16.920099 -11.4767 -1042.97
-17.260401 -11.4586 -1042.62
-17.7169 -11.4401 -1042.17
-18.4564 -11.316 -1041.6801
-18.9431 -11.0878 -1041.55
-19.5098 -11.1667 -1040.97
-19.879299 -11.1172 -1040.55
-20.6752 -10.8434 -1040.42
-20.833799 -11.0769 -1039.8
-21.479 -10.9965 -1039.34
-21.8297 -10.981 -1038.97
-22.972 -10.9377 -1037.6899
-23.673201 -11.0442 -1036.67
-24.2026 -10.8676 -1036.53
-24.555901 -11.0057 -1035.79
-24.781601 -11.0428 -1035.48
-25.2288 -11.0377 -1034.9399
-25.5469 -11.0544 -1034.52
-25.890499 -11.092 -1034.09
-26.264799 -11.0678 -1033.64
-26.645201 -11.061 -1033.1801
-26.6992 -11.1896 -1032.79
-27.246201 -11.1502 -1032.3101
-27.7418 -11.2658 -1031.4399
-28.2365 -11.2765 -1031.0699
-28.8193 -11.3835 -1030.11
-29.339899 -11.4224 -1029.15
-29.7838 -11.4131 -1028.67
-30.438499 -11.4887 -1027.76
-31.138201 -11.6232 -1026.49
-32.587101 -11.6689 -1024.72
-32.951199 -11.6922 -1024.28
-33.105999 -11.7548 -1023.85
-33.683998 -11.8531 -1022.92
-34.215 -11.9849 -1021.97
-34.285099 -12.0914 -1021.52
-34.967499 -12.299 -1020.05
-35.792702 -12.8279 -1017.51
-35.970001 -12.8978 -1017.01
-36.343601 -13.4307 -1015.74
-36.327801 -14.0083 -1013.22
-36.436298 -14.6518 -1011.98
-36.66 -14.8763 -1011.01
-36.684299 -15.5585 -1008.12
-36.945599 -16.3169 -1005.46
-9.1069298 -12.2837 -1047.4
-10.5767 -12.002 -1046.65
-11.8688 -11.7776 -1045.9
-12.4804 -11.6441 -1045.52
-13.6863 -11.4821 -1044.79
-14.3821 -11.144 -1044.58
-14.9841 -11.0284 -1044.21
-15.536 -10.9836 -1043.8
-16.168699 -11.0857 -1043.1801
-17.1588 -10.8102 -1042.48
-17.754499 -10.886 -1041.98
-18.7609 -10.6435 -1041.33
-19.383101 -10.6882 -1040.8101
-20.0026 -10.5744 -1040.42
-20.4611 -10.5424 -1040.04
-20.768999 -10.5522 -1039.65
-21.8055 -10.4901 -1038.7
-22.1964 -10.5848 -1037.86
-22.748199 -10.5409 -1037.41
-23.1667 -10.5365 -1036.98
-24.1374 -10.3583 -1036.41
-24.293301 -10.5452 -1035.7
-24.5777 -10.5755 -1035.29
-25.1632 -10.5023 -1034.8101
-26.112101 -10.567 -1033.51
-26.440599 -10.5845 -1033.08
-27.318501 -10.5902 -1032.15
-27.547199 -10.6453 -1031.8199
-28.2644 -10.6684 -1031.04
-28.883499 -10.7571 -1029.9301
-29.6187 -11.007 -1028.59
-30.4877 -10.8985 -1027.62
-30.751801 -11.081 -1026.8
-31.1719 -11.0667 -1026.36
-31.615499 -11.0817 -1026.09
-32.028599 -11.0172 -1025.47
-32.277401 -11.068 -1025.08
-32.746201 -11.0536 -1024.61
-33.271099 -11.1848 -1023.71
-33.959999 -11.3464 -1022.31
-34.3055 -11.5253 -1021.39
-34.6437 -11.5729 -1020.87
-34.649399 -11.6995 -1020.43
-35.022598 -11.7599 -1019.92
-35.4711 -12.0502 -1019.1
-35.399399 -12.3911 -1017.44
-35.657501 -12.4655 -1016.93
-36.101299 -12.5025 -1015.34
-36.384201 -14.2452 -1010.6
-37.129799 -15.704 -1005.29
-36.980999 -16.290001 -1003.68
-5.4461098 -12.2718 -1049.12
-6.0872798 -12.3902 -1048.64
-6.7579999 -12.2467 -1048.3101
-8.2440205 -11.9451 -1047.65
-8.9774799 -11.7668 -1047.29
-9.5072002 -11.571 -1046.84
-10.4877 -11.4813 -1046.53
-11.0651 -11.1906 -1046.25
-11.7512 -11.2691 -1045.79
-12.3221 -11.1777 -1045.42
-12.8997 -11.0576 -1045.05
-13.5806 -10.9267 -1044.65
-14.2701 -10.8236 -1044.25
-14.9008 -10.7375 -1043.84
-15.4232 -10.6534 -1043.45
-15.908 -10.6162 -1043.09
-16.6033 -10.4768 -1042.7
-17.148701 -10.433 -1042.29
-17.672701 -10.3988 -1041.85
-18.138901 -10.3398 -1041.4399
-19.1127 -10.242 -1040.66
-19.6733 -10.1918 -1040.27
-20.2894 -10.0771 -1039.83
-20.618401 -10.0806 -1039.4399
-21.0399 -10.0722 -1038.99
-21.554399 -10.0204 -1038.55
-22.2994 -10.0405 -1037.7
-22.833799 -9.9854097 -1037.24
-23.2386 -9.8696899 -1037.0699
-23.627701 -9.8775301 -1036.62
-23.8241 -10.0269 -1036.02
-24.7097 -9.9949598 -1035.13
-25.0912 -9.9867201 -1034.6899
-26.055901 -10.0466 -1033.39
-26.409901 -10.0711 -1032.95
-26.932699 -10.0404 -1032.48
-27.2957 -9.9984102 -1032.29
-27.6418 -10.1913 -1031.1899
-28.164101 -10.1584 -1030.71
-28.871 -10.1965 -1029.8
-29.2265 -10.506 -1028.86
-29.8256 -10.2833 -1028.73
-30.137699 -10.4709 -1027.5601
-30.9554 -10.4662 -1026.88
-31.7342 -10.4373 -1025.84
-32.0966 -10.5154 -1025.59
-32.236401 -10.5537 -1025.01
-32.684101 -10.6646 -1024.61
-32.838402 -10.6116 -1024.08
-33.3297 -10.7273 -1023.14
-33.6502 -10.7735 -1022.67
-34.074299 -10.9281 -1021.73
-35.3148 -11.8793 -1017.33
-36.494202 -13.8861 -1010.71
-36.787498 -14.7012 -1008
-9.75354 -11.0529 -1046.76
-10.5063 -10.9198 -1046.38
-11.0903 -10.8101 -1046.03
-11.8103 -10.6787 -1045.64
-12.4388 -10.5685 -1045.25
-12.8657 -10.5061 -1044.91
-13.5385 -10.3919 -1044.51
-14.2714 -10.2603 -1044.09
-14.9163 -10.1713 -1043.6801
-15.3118 -10.1272 -1043.33
-15.8753 -10.0416 -1042.9399
-16.553499 -9.9196796 -1042.5601
-17.070101 -9.86096 -1042.15
-17.587099 -9.82092 -1041.71
-18.042 -9.6857004 -1041.4
-18.5333 -9.7479601 -1040.9
-19.0219 -9.6031504 -1040.61
-19.597 -9.4802904 -1040.3101
-20.0184 -9.6151695 -1039.67
-20.4142 -9.4978304 -1039.37
-20.854401 -9.5782499 -1038.86
-21.3347 -9.4589796 -1038.54
-21.7759 -9.4378099 -1038.1
-22.039801 -9.5473003 -1037.5
-22.6901 -9.4608803 -1037.13
-23.285101 -9.5127602 -1036.33
-23.9048 -9.3608103 -1036.03
-24.2267 -9.4140301 -1035.55
-24.702299 -9.3545799 -1035.23
-25.1064 -9.3402395 -1034.79
-26.163401 -9.4663696 -1033.23
-26.759001 -9.5228004 -1032.36
-27.096701 -9.5396099 -1031.92
-27.728901 -9.65979 -1031.14
-28.792 -9.6809397 -1029.6801
-29.723301 -9.7746601 -1028.3101
-30.084299 -9.8793602 -1027.49
-30.7377 -9.8158903 -1027.05
-31.2616 -9.7724895 -1026.61
-31.638399 -9.7617798 -1026.51
-31.9849 -9.9091501 -1025.34
-32.7556 -9.9429598 -1024.37
-33.0462 -10.016 -1024.12
-33.285 -10.1812 -1023.02
-34.044102 -10.3815 -1021.6
-34.475498 -10.5114 -1020.64
-35.1866 -10.8884 -1019.35
-35.5858 -11.1948 -1017.89
-35.793098 -11.4807 -1016.85
-36.041901 -11.7501 -1015.82
-36.242401 -13.0775 -1011.59
-36.990799 -14.882 -1005.28
-8.8645601 -10.4136 -1047.13
-9.6643105 -10.5021 -1046.63
-10.3036 -10.3871 -1046.27
-10.7913 -10.2064 -1045.85
-11.6865 -10.1324 -1045.5
-12.241 -9.8678303 -1045.2
-12.972 -9.9121399 -1044.73
-13.6468 -9.7811003 -1044.33
-13.8792 -9.7779503 -1043.86
-15.3085 -9.3681297 -1043.36
-15.9148 -9.4587402 -1042.79
-16.492901 -9.3649902 -1042.42
-17.128799 -9.1135597 -1042.22
-17.368299 -9.3142405 -1041.61
-17.963301 -9.2342196 -1041.17
-18.328501 -9.2243299 -1040.79
-18.8687 -9.1506004 -1040.35
-19.406601 -9.0945997 -1039.9399
-19.928301 -8.9591398 -1039.7
-20.2565 -9.0566702 -1039.14
-20.708099 -9.0384798 -1038.74
-21.3547 -8.9542198 -1038.26
-21.755199 -8.9465599 -1037.86
-22.572001 -8.8888903 -1037.1
-22.944201 -8.9321299 -1036.6
-23.382099 -8.9172697 -1036.16
-23.738501 -8.9155903 -1035.75
-24.169701 -8.8751202 -1035.3
-24.6392 -8.8225098 -1035.08
-24.9816 -8.8654203 -1034.42
-25.4032 -8.8064299 -1034.22
-25.6863 -8.8953199 -1033.5601
-26.349199 -8.9572802 -1032.67
-26.7973 -8.9429302 -1032.21
-27.087299 -8.9686003 -1031.77
-27.6992 -9.0390902 -1030.9
-28.15 -9.0538301 -1030.4399
-28.701799 -9.1241798 -1029.5601
-29.1931 -9.1837196 -1028.6899
-29.4792 -9.1986103 -1028.29
-30.444901 -9.1591196 -1027.47
-31.344299 -9.1550303 -1026.5601
-31.6556 -9.1678495 -1026.11
-32.074299 -9.3039598 -1025.2
-32.5867 -9.4336901 -1024.27
-33.2346 -9.5326204 -1023.53
-33.5084 -9.68927 -1022.43
-33.930401 -9.82129 -1021.49
-34.365299 -9.9888601 -1020.54
-34.9394 -10.2137 -1019.74
-35.266998 -10.5884 -1017.58
-35.983898 -11.1685 -1015.72
-35.858501 -11.6207 -1013.8
-36.436298 -13.0545 -1008.68
-36.679298 -13.5694 -1007.75
-36.696701 -13.8381 -1006.06
-36.9907 -14.2829 -1005.2
-36.654301 -14.7223 -1003.36
-37.055698 -15.1791 -1002.47
-36.431801 -17.122801 -996.11401
-8.73456 -9.9204998 -1046.92
-9.5187998 -9.9434795 -1046.5
-10.2917 -9.5429697 -1046.35
-10.9741 -9.69067 -1045.74
-11.5756 -9.5773897 -1045.37
-12.2795 -9.4406099 -1044.98
-12.95 -9.3286695 -1044.59
-13.948 -9.0773602 -1043.89
-14.5943 -9.1175499 -1043.45
-15.7485 -8.9513903 -1042.67
-16.3041 -8.84799 -1042.3101
-16.8179 -8.7378197 -1041.88
-17.4489 -8.7076702 -1041.4399
-18.0585 -8.6367197 -1041
-18.4252 -8.64606 -1040.63
-18.838699 -8.6145601 -1040.24
-19.274799 -8.5668898 -1039.83
-19.938299 -8.4697599 -1039.36
-20.677099 -8.48773 -1038.6
-21.2026 -8.4487 -1038.16
-21.752001 -8.3747301 -1037.71
-22.0714 -8.3879404 -1037.3101
-23.002899 -8.3371296 -1036.4399
-23.3438 -8.3282804 -1036.02
-23.931299 -8.2864704 -1035.5601
-24.1719 -8.3049297 -1035.15
-24.5172 -8.3382902 -1034.72
-24.9067 -8.2987404 -1034.46
-26.072399 -8.2788696 -1033.21
-26.239901 -8.4152498 -1032.55
-26.4891 -8.4648399 -1032.14
-26.884701 -8.4799805 -1031.6801
-27.480801 -8.3383503 -1031.51
-27.638201 -8.4849501 -1030.77
-27.9592 -8.4880695 -1030.34
-28.4991 -8.7048597 -1029.4399
-29.383699 -8.5216398 -1028.65
-29.975 -8.4552898 -1028.22
-30.4687 -8.4088097 -1027.77
-30.682699 -8.4803495 -1027.37
-31.164 -8.6094103 -1026.48
-31.522699 -8.62152 -1026.02
-32.948898 -9.0037498 -1023.22
-33.3311 -9.1557903 -1022.32
-35.569199 -10.2352 -1016.45
-35.990799 -11.1962 -1013.64
-35.917198 -11.6789 -1011.67
-36.223801 -12.0536 -1010.13
-36.547199 -12.6933 -1008.72
-36.830299 -13.8089 -1004.96
-9.4821796 -9.4086599 -1046.35
-10.1956 -9.24576 -1045.97
-12.0806 -8.9267902 -1044.87
-12.7505 -8.8110399 -1044.48
-13.3519 -8.5513296 -1044.17
-14.0605 -8.6141996 -1043.6801
-14.4993 -8.5627699 -1043.3199
-15.0884 -8.4665804 -1042.92
-15.7844 -8.3674603 -1042.52
-16.3873 -8.2759705 -1042.15
-17.038099 -8.1735802 -1041.73
-17.356501 -8.1923199 -1041.3199
-17.9307 -8.1262197 -1040.88
-18.42 -7.9022799 -1040.66
-18.910601 -8.0293598 -1040.08
-19.2894 -8.0075998 -1039.6899
-20.1957 -7.9573698 -1038.87
-20.7269 -7.9103699 -1038.4399
-21.1194 -7.9011202 -1038.03
-21.5196 -7.8431101 -1037.65
-22.034401 -7.8573599 -1037.1801
-22.3384 -7.8589802 -1036.77
-22.6984 -7.8508 -1036.36
-23.1987 -7.82236 -1035.91
-23.5919 -7.8152199 -1035.49
-23.9149 -7.8303499 -1035.0601
-24.5135 -7.7681298 -1034.58
-24.765699 -7.8208899 -1034.1801
-25.4506 -7.8462501 -1033.3199
-25.7656 -7.88095 -1032.88
-26.2104 -7.8629198 -1032.41
-26.5793 -7.87991 -1031.97
-26.9191 -7.9015198 -1031.53
-27.5674 -7.9555702 -1030.75
-28.5562 -7.9668298 -1029.4
-29.2521 -7.8627 -1028.97
-29.694 -7.8433199 -1028.5699
-30.0825 -7.8756399 -1028.14
-30.493799 -7.8564501 -1027.88
-30.679701 -7.9123802 -1027.25
-30.902901 -7.9830899 -1026.8101
-31.370399 -7.97018 -1026.59
-31.684799 -8.1147203 -1025.45
-32.023499 -8.1684599 -1024.95
-32.300201 -8.2118196 -1024.45
-32.364101 -8.3445997 -1024.04
-32.7607 -8.5176401 -1023.13
-33.602501 -8.6486797 -1021.7
-34.207802 -8.9200401 -1020.26
-34.573898 -9.2419996 -1018.85
-35.909901 -9.7746601 -1016.16
-35.8055 -10.7507 -1013.38
-35.6334 -11.2003 -1011.57
-35.998199 -11.2428 -1011.01
-36.152901 -12.0126 -1008.46
-36.3727 -12.2734 -1007.41
-36.640301 -12.699 -1005.8
-36.695499 -13.0115 -1004.74
-36.697102 -16.004299 -996.55798
-4.5385699 -9.6134005 -1048.8
-9.3891602 -8.7009001 -1046.29
-10.0471 -8.7956495 -1045.88
-10.7281 -8.6567402 -1045.51
-11.4824 -8.5170298 -1045.11
-12.1263 -8.4053602 -1044.72
-13.8156 -8.1588097 -1043.6
-14.4982 -8.0377197 -1043.1801
-15.0628 -7.7968798 -1042.9399
-15.5946 -7.8998699 -1042.42
-16.1276 -7.8375201 -1042.0699
-16.720699 -7.7498798 -1041.67
-17.3505 -7.5019498 -1041.33
-17.935499 -7.6037302 -1040.77
-18.3811 -7.5942702 -1040.37
-19.1315 -7.5496502 -1039.59
-19.7801 -7.4639301 -1039.13
-20.271999 -7.4161701 -1038.71
-20.724501 -7.37534 -1038.29
-21.0161 -7.3951101 -1037.91
-21.9601 -7.3559599 -1037.0601
-22.346901 -7.3508902 -1036.64
-22.783199 -7.3022799 -1036.1899
-23.6068 -7.2871399 -1035.35
-23.8573 -7.3120399 -1034.9399
-24.6252 -7.3487902 -1034.08
-25.030001 -7.35425 -1033.63
-25.855 -7.2796302 -1032.89
-26.025 -7.40906 -1032.33
-26.4161 -7.42346 -1031.89
-26.7188 -7.4576702 -1031.45
-28.009199 -7.3920898 -1030.09
-28.844999 -7.3636498 -1029.33
-29.3701 -7.3166199 -1029.08
-29.740299 -7.31812 -1028.5
-30.012899 -7.3575401 -1028.05
-30.690901 -7.41641 -1027.12
-30.951 -7.45682 -1026.66
-30.996599 -7.5782499 -1026.25
-31.358999 -7.5879798 -1025.77
-31.616501 -7.6515498 -1025.3199
-31.9648 -7.6809702 -1024.83
-33.527401 -8.09869 -1022.27
-34.0993 -8.3611803 -1020.8
-34.261902 -8.71875 -1019.21
-34.697498 -8.8804598 -1018.71
-35.583599 -9.1947899 -1016.17
-35.306702 -10.1518 -1013.46
-35.573399 -10.5309 -1011.95
-36.175999 -11.1833 -1010.06
-36.514 -12.2224 -1005.7
-36.594101 -14.6028 -997.54199
-9.4826698 -8.3859596 -1046.09
-10.1122 -8.2470398 -1045.71
-10.7032 -8.1523399 -1045.36
-11.4486 -8.0194702 -1044.97
-12.051 -7.9183698 -1044.59
-12.6837 -7.8010898 -1044.21
-13.3158 -7.71313 -1043.83
-13.7982 -7.6609502 -1043.47
-14.321 -7.5847502 -1043.09
-15.5101 -7.2624202 -1042.34
-16.2381 -7.28473 -1041.92
-16.7948 -7.18503 -1041.54
-18.7668 -7.05161 -1039.84
-20.1026 -6.82584 -1038.75
-20.560101 -6.8087201 -1038.3199
-21.069799 -6.7154498 -1037.96
-21.4904 -6.8859601 -1037.36
-21.801001 -6.89853 -1036.96
-22.2722 -6.8587298 -1036.51
-22.6947 -6.8453999 -1036.09
-23.5502 -6.8064599 -1035.22
-23.9286 -6.8036199 -1034.8
-24.231899 -6.81387 -1034.4399
-25.1031 -6.8015699 -1033.47
-25.4785 -6.70963 -1033.25
-25.7285 -6.8620601 -1032.62
-26.1015 -6.8797898 -1032.17
-26.4492 -6.9091501 -1031.74
-26.809 -6.9031401 -1031.4
-27.5355 -6.9060402 -1030.42
-27.921801 -6.8638902 -1030.02
-28.312401 -6.9028602 -1029.7
-29.407 -6.7857399 -1028.84
-29.693001 -6.8157001 -1028.38
-29.7834 -6.91818 -1027.97
-30.565901 -6.9755201 -1027.03
-31.4321 -7.1350999 -1025.8
-31.4536 -7.1924701 -1025.22
-32.346199 -7.32623 -1023.78
-32.606602 -7.5392499 -1022.91
-33.302601 -7.6142302 -1021.9
-34.303699 -8.18225 -1019.02
-34.559799 -8.2420702 -1018.54
-35.066299 -8.3671303 -1017.54
-35.235001 -8.7745104 -1016.65
-35.891399 -10.458 -1010.94
-36.141701 -10.6509 -1009.98
-36.144299 -11.0143 -1008.23
-36.3106 -11.2584 -1007.18
-36.500099 -12.9179 -1001.8
-36.487701 -14.7153 -996.32202
-4.7392001 -8.7016602 -1048.65
-9.5447397 -7.8280001 -1045.92
-10.045 -7.7610502 -1045.59
-10.6804 -7.6628399 -1045.24
-11.3633 -7.5374098 -1044.86
-11.9765 -7.4219699 -1044.47
-12.5172 -7.3453102 -1044.11
-13.0536 -7.1441002 -1043.73
-13.7856 -7.1492 -1043.33
-16.811399 -6.5482502 -1041.49
-17.410999 -6.5313401 -1041.01
-18.171101 -6.3036499 -1040.8
-18.175501 -6.5989699 -1040.2
-18.8857 -6.5031099 -1039.6801
-19.4438 -6.4939899 -1038.9
-20.462 -6.44766 -1038.09
-20.967699 -6.4088702 -1037.66
-21.422501 -6.3970299 -1037.25
-21.8099 -6.3723798 -1036.8199
-22.233801 -6.3464398 -1036.38
-22.7631 -6.33038 -1035.95
-23.2054 -6.1839299 -1035.78
-23.4949 -6.3362999 -1035.1
-23.982599 -6.2788701 -1034.64
-24.3097 -6.3228102 -1034.23
-24.560699 -6.3394499 -1033.8199
-24.9548 -6.32971 -1033.38
-25.291901 -6.3498201 -1032.95
-25.6556 -6.3836699 -1032.51
-26.1245 -6.3608098 -1032.05
-26.332399 -6.4436598 -1031.64
-26.600901 -6.55722 -1031.15
-27.572901 -6.3634901 -1030.33
-27.9331 -6.3971901 -1030.08
-28.438499 -6.3134198 -1029.63
-29.034201 -6.2691998 -1029.34
-29.327101 -6.2866201 -1028.73
-29.696501 -6.3044701 -1028.27
-29.889601 -6.3846698 -1027.8199
-30.525299 -6.4791002 -1026.87
-31.268101 -6.6091299 -1025.52
-31.412001 -6.72263 -1025.11
-31.773001 -6.7305899 -1024.61
-31.990101 -6.8343501 -1024.16
-32.704102 -6.9272199 -1023.42
-33.034901 -7.0605502 -1022.25
-33.476002 -7.2027001 -1021.31
-33.5784 -7.45786 -1020.9
-33.9725 -7.4955101 -1019.85
-34.055099 -7.7607398 -1018.92
-34.680599 -7.7431302 -1018.7
-35.1982 -9.1807899 -1013.23
-35.5322 -9.3793001 -1012.19
-35.546902 -9.6821003 -1011.23
-36.062901 -10.199 -1009.84
-36.1852 -10.7932 -1007.08
-3.7288799 -8.3775597 -1049.05
-8.1019297 -7.54175 -1046.6801
-8.6809101 -7.4649401 -1046.22
-10.0079 -7.2502699 -1045.45
-10.6712 -7.1185298 -1045.09
-11.2194 -7.0406499 -1044.74
-11.8342 -6.9454999 -1044.37
-12.5037 -6.8236699 -1043.98
-13.132 -6.7182002 -1043.59
-17.693899 -5.9654799 -1040.98
-18.093901 -5.9552302 -1040.53
-18.756001 -6.0063801 -1039.58
-19.2078 -5.9787302 -1039.15
-19.570499 -5.9616399 -1038.75
-19.827801 -6.0065598 -1038.39
-20.298 -5.9858999 -1037.98
-21.4025 -5.76089 -1037.3101
-21.725599 -5.88516 -1036.7
-22.191401 -5.8502202 -1036.26
-22.653099 -5.75668 -1036
-23.0986 -5.7160902 -1035.65
-24.577299 -5.7758498 -1033.86
-24.864901 -5.8482099 -1033.26
-25.302999 -5.8550401 -1032.8199
-25.856199 -5.9518399 -1031.97
-26.122999 -5.9591699 -1031.55
-26.5294 -5.9552302 -1031.11
-27.1133 -5.8884602 -1030.84
-27.540199 -5.8227801 -1030.29
-28.184799 -5.7525902 -1029.9
-28.5243 -5.7711201 -1029.52
-28.868099 -5.7845802 -1029.08
-29.582899 -5.8363299 -1028.16
-30.6063 -5.95438 -1026.66
-32.4454 -6.4421401 -1023.08
-32.792 -6.7924199 -1022.13
-33.077202 -6.8266602 -1021.19
-33.743401 -7.2641001 -1019.72
-34.077301 -7.2582402 -1018.77
-34.4608 -7.38486 -1018.42
-35.109402 -8.7627296 -1013.67
-35.125 -8.6870699 -1013.11
-35.557201 -9.3442402 -1010.61
-36.147999 -10.3004 -1006.97
-36.267601 -10.7466 -1005.37
-36.625999 -10.9825 -1004.27
-36.508801 -11.5539 -1002.66
-36.635201 -13.2996 -997.10498
-7.8670001 -7.05862 -1046.51
-9.3623695 -6.81427 -1045.66
-9.8832998 -6.7272601 -1045.33
-10.5192 -6.6076002 -1044.97
-11.1859 -6.4892302 -1044.59
-12.53 -6.0202899 -1044.08
-13.0402 -6.2069702 -1043.46
-16.9879 -5.4808698 -1041.33
-17.6313 -5.3989601 -1040.89
-18.6318 -5.4783001 -1039.5
-19.5429 -5.4498601 -1038.62
-20.437901 -5.2623301 -1038.0601
-20.8571 -5.3641701 -1037.39
-21.7509 -5.2060499 -1036.77
-22.2286 -5.3090801 -1036.11
-22.617399 -5.3022499 -1035.6899
-22.8412 -5.3378301 -1035.3
-23.3923 -5.2973599 -1034.84
-23.624901 -5.3551002 -1034.45
-24.055 -5.3364902 -1034
-24.270201 -5.3691401 -1033.6
-24.7705 -5.3713102 -1033.15
-25.5485 -5.3642302 -1032.25
-25.7943 -5.4093299 -1031.84
-26.113001 -5.43753 -1031.42
-26.755199 -5.3243399 -1030.9301
-28.489599 -5.3304701 -1029.38
-28.8016 -5.2663598 -1028.96
-29.6141 -5.2892799 -1028.01
-29.751301 -5.3913598 -1027.5601
-31.450001 -5.67136 -1024.78
-32.031601 -5.9064898 -1023.41
-32.570301 -5.8689599 -1022.87
-32.672199 -6.27914 -1022.01
-33.263901 -6.5379901 -1020.57
-33.8008 -6.7814898 -1018.66
-34.007099 -6.8776598 -1018.18
-34.687199 -6.9518399 -1017.14
-34.947102 -7.4819002 -1015.84
-34.6959 -7.76578 -1014.58
-36.166199 -9.64676 -1008
-36.415199 -10.1655 -1005.23
-36.346401 -11.0378 -1002.56
-36.325901 -12.5544 -997.07397
-36.337898 -13.1724 -995.95502
-4.5583501 -7.0978098 -1048.21
-5.34973 -6.9562101 -1047.76
-5.8137202 -6.8862901 -1047.46
-6.3523598 -6.7987099 -1047.17
-7.0203199 -6.5647898 -1046.66
-7.8710899 -6.54425 -1046.34
-8.3997803 -6.2492399 -1046.0699
-8.7819204 -6.3273602 -1045.47
-9.8289804 -6.20471 -1045.1899
-10.4099 -6.1245098 -1044.85
-11.7227 -5.8823199 -1044.09
-12.4771 -5.7470999 -1043.6801
-13.0445 -5.6767001 -1043.3101
-17.052799 -4.9300799 -1041.21
-17.6329 -4.7428002 -1040.87
-18.201799 -4.9534898 -1039.89
-18.826 -4.89359 -1039.34
-19.4816 -4.9277 -1038.48
-19.972401 -4.7038898 -1038.4
-20.2195 -4.9194002 -1037.71
-20.662901 -4.8937402 -1037.29
-21.2651 -4.6821299 -1037.1
-21.568501 -4.7813702 -1036.53
-21.9692 -4.8350501 -1036.02
-22.3619 -4.82407 -1035.59
-22.9133 -4.7016301 -1035.35
-23.661501 -4.7916298 -1034.29
-24.264601 -4.8579998 -1033.47
-24.790701 -4.76752 -1033.17
-25.082899 -4.8396001 -1032.58
-25.7085 -4.89432 -1031.72
-26.284901 -4.8343501 -1031.24
-26.633801 -4.8305702 -1031
-27.2257 -4.7233 -1030.51
-27.742201 -4.6715102 -1030.15
-28.1392 -4.68048 -1029.72
-28.558599 -4.6733098 -1029.26
-29.394501 -4.8931599 -1027.89
-29.549801 -4.9361 -1027.39
-30.5194 -4.89713 -1026.5
-29.7554 -5.3405199 -1026.3199
-30.3283 -5.2473798 -1025.52
-32.192101 -5.4576402 -1022.76
-32.277901 -5.56113 -1022.3
-32.526699 -5.6301298 -1021.82
-33.006901 -5.7761202 -1020.9
-33.229099 -5.8379202 -1020.42
-33.544498 -6.0604901 -1019.46
-34.195 -6.3811302 -1018.2
-34.486599 -6.5122099 -1016.91
-35.252499 -7.6655002 -1013.12
-35.894199 -8.6607103 -1009.51
-35.771702 -8.81674 -1008.28
-36.026501 -8.9097605 -1007.74
-36.132801 -9.2248802 -1006.7
-36.461201 -10.219 -1004.19
-36.136398 -12.1139 -996.82501
-5.7686801 -6.3422499 -1047.3101
-6.1336098 -6.3025498 -1047.05
-7.7601299 -6.0260301 -1046.17
-8.2244902 -5.7295499 -1045.92
-9.0385103 -5.7999001 -1045.41
-10.8293 -5.4999399 -1044.37
-11.6368 -5.13831 -1044.1
-12.1391 -5.2737699 -1043.6
-12.7737 -5.1763 -1043.22
-13.5723 -5.0254202 -1042.8
-15.6487 -4.6364698 -1041.8
-16.322901 -4.51648 -1041.46
-16.9039 -4.4126301 -1041.09
-17.634399 -4.11447 -1040.8199
-18.035 -4.1873798 -1040.28
-18.561001 -4.3843098 -1039.25
-19.4592 -4.3796701 -1038.33
-19.6693 -4.4237399 -1037.99
-20.350201 -4.1370802 -1037.85
-20.695101 -4.3129902 -1037.13
-21.0952 -4.3043799 -1036.71
-21.500401 -4.3018799 -1036.3
-21.743299 -4.3455801 -1035.91
-22.292 -4.29599 -1035.46
-22.6728 -4.3091102 -1035.04
-23.101101 -4.29391 -1034.61
-23.588301 -4.2562599 -1034.15
-24.4499 -4.3484802 -1032.92
-24.955299 -4.2944002 -1032.4399
-25.512199 -4.2158499 -1032.22
-25.824499 -4.2719998 -1031.74
-26.2377 -4.2948599 -1031.11
-27.1415 -4.2007098 -1030.48
-28.130699 -4.1181002 -1029.58
-28.548201 -4.1262202 -1029.11
-28.804001 -4.1806302 -1028.65
-29.093599 -4.25 -1028.37
-29.4916 -4.43753 -1027.42
-29.709801 -4.75385 -1025.84
-30.2227 -4.7092299 -1025.36
-30.6553 -4.7204599 -1025.11
-31.268999 -4.7716098 -1024.03
-31.8431 -4.86731 -1023.1
-33.046001 -5.3710899 -1020.28
-33.680801 -5.4686899 -1019.24
-34.458801 -6.4253502 -1015.32
-36.1217 -8.9989004 -1005.53
-36.318802 -9.3345299 -1005.16
-36.369598 -10.2974 -1001.19
-36.511799 -12.0431 -995.63702
-36.033401 -12.724 -993.96399
-5.67102 -5.7697802 -1047.16
-6.1940899 -5.69208 -1046.87
-6.9533701 -5.5685701 -1046.49
-7.5844102 -5.4746399 -1046.03
-8.1500196 -5.1926599 -1045.75
-8.9102802 -5.2476802 -1045.27
-9.5879498 -5.1456599 -1044.92
-10.1674 -5.03479 -1044.58
-10.8989 -4.8966999 -1044.1899
-12.2518 -4.6666899 -1043.41
-13.5145 -4.4767799 -1042.65
-15.6124 -4.02917 -1041.66
-16.3029 -3.9168701 -1041.29
-16.816 -3.8414299 -1040.9399
-17.735001 -3.8157001 -1040.08
-18.4907 -3.85025 -1039.1
-19.2927 -3.7274201 -1038.4399
-19.6772 -3.76685 -1038
-20.122999 -3.8259001 -1037.42
-20.7012 -3.5938399 -1037.29
-20.9151 -3.7720001 -1036.59
-21.9944 -3.5873101 -1035.98
-22.1653 -3.7677 -1035.33
-22.777201 -3.59952 -1035.12
-23.386801 -3.7758801 -1034.05
-23.8887 -3.74774 -1033.59
-24.302 -3.7016599 -1033.14
-24.5585 -3.7586701 -1032.74
-25.274099 -3.78494 -1031.87
-26.7115 -3.5750101 -1030.95
-27.3153 -3.5398901 -1030.29
-29.1661 -4.0278602 -1027.12
-30.451 -4.1044598 -1025.17
-30.8557 -4.09024 -1024.6801
-30.9163 -4.4990802 -1023.79
-31.862101 -4.3220501 -1023.2
-32.134399 -4.5034499 -1022.04
-32.309898 -4.7470102 -1021.14
-33.053101 -4.8998098 -1020.32
-33.3312 -5.3296499 -1018.1
-33.749298 -5.3565698 -1017.59
-34.5168 -5.8407898 -1015.14
-35.340401 -6.84308 -1011.87
-35.275002 -7.0427599 -1010.59
-35.571999 -7.3027301 -1010.29
-35.952 -8.0637798 -1007.6
-36.083698 -8.07687 -1006.44
-36.2481 -8.7929096 -1005.03
-36.458 -9.5681496 -1002.39
-6.0634799 -5.1584802 -1046.75
-6.9151602 -4.9963102 -1046.36
-7.5054302 -4.74542 -1045.9301
-8.2132597 -4.8217201 -1045.48
-8.8412504 -4.72018 -1045.13
-10.9 -4.35324 -1044.03
-11.5301 -4.2503099 -1043.66
-11.85 -4.1374502 -1043.1899
-12.6801 -4.0750098 -1042.91
-14.8719 -3.65482 -1041.84
-15.5031 -3.52496 -1041.52
-16.2332 -3.405 -1041.13
-16.7635 -3.1579599 -1040.9
-17.277201 -3.11935 -1040.47
-17.7411 -3.2471299 -1039.91
-18.4279 -3.2481401 -1038.95
-19.65 -3.15204 -1037.9
-19.972 -3.2651999 -1037.28
-20.906099 -3.2242401 -1036.4399
-21.7201 -3.2253399 -1035.6
-22.5473 -3.1829801 -1034.75
-24.127199 -3.14221 -1033.17
-24.712299 -3.2602501 -1032.1899
-25.1805 -3.2235701 -1031.73
-25.759899 -3.0932 -1031.5601
-26.1833 -3.15411 -1030.87
-26.655899 -3.11395 -1030.52
-26.9582 -3.1266799 -1030.17
-28.7605 -3.35062 -1027.33
-29.514799 -3.5272501 -1026.01
-30.033701 -3.8204701 -1025.03
-31.0776 -3.6933899 -1023.76
-31.4594 -3.7133501 -1023.3
-31.7563 -3.80814 -1023.05
-31.9687 -3.86005 -1022.36
-32.445301 -4.0525198 -1021.64
-32.8867 -4.3576999 -1020.23
-33.200699 -4.5109301 -1018.88
-33.281399 -4.9911799 -1018
-33.857201 -4.9740601 -1017.31
-34.289902 -5.0503502 -1016.48
-34.305 -5.5029001 -1015.17
-34.747398 -6.0148301 -1012.48
-35.0914 -6.1963201 -1011.47
-35.6744 -7.0509 -1009.11
-35.927799 -7.44522 -1007.52
-36.216801 -8.1792898 -1004.94
-35.788799 -11.2914 -994.84802
-3.94293 -5.29074 -1047.76
-6.6522198 -4.32306 -1046.14
-7.3971601 -4.1233501 -1045.9301
-7.8438702 -4.1332998 -1045.4399
-8.6983004 -4.1907301 -1045
-9.9772902 -3.987 -1044.3
-10.5305 -3.71872 -1043.92
-11.2258 -3.58569 -1043.54
-11.9867 -3.60883 -1043.15
-12.5309 -3.5280199 -1042.78
-13.0596 -3.3273301 -1042.4
-15.4198 -2.97592 -1041.34
-16.1259 -2.85818 -1040.95
-16.6063 -2.8475001 -1040.5601
-17.056499 -2.62766 -1040.28
-17.699499 -2.6812699 -1039.74
-17.8626 -2.7604699 -1039.33
-18.3479 -2.6745601 -1038.87
-19.0548 -2.7859499 -1037.95
-19.5002 -2.76248 -1037.53
-19.802999 -2.74435 -1037.14
-20.344299 -2.7400801 -1036.74
-21.315201 -2.6666601 -1035.87
-21.656 -2.67047 -1035.46
-21.9536 -2.69928 -1035.0601
-22.7631 -2.6949799 -1034.22
-23.2029 -2.6845701 -1033.77
-23.593 -2.68311 -1033.34
-24.0429 -2.6568601 -1032.89
-24.325001 -2.7163701 -1032.48
-24.9478 -2.52051 -1032.3101
-25.2479 -2.6473701 -1031.5601
-25.6472 -2.6819799 -1031.13
-26.4111 -2.5735199 -1030.55
-28.3985 -2.91888 -1027.25
-29.2596 -2.9257801 -1026.3
-29.6243 -2.9194901 -1025.86
-30.077 -3.03302 -1024.97
-30.633699 -3.0004001 -1024.51
-30.799601 -3.0792501 -1024.09
-31.382601 -3.3117399 -1022.74
-32.115601 -3.5186801 -1021.26
-33.313599 -4.0125999 -1018.79
-32.859299 -4.3551602 -1017.84
-33.406898 -4.3304701 -1017.31
-33.585899 -4.5693698 -1016.36
-34.3615 -4.8626399 -1015.18
-34.532501 -5.2379799 -1013.93
-34.377201 -5.4242601 -1012.88
-35.237301 -5.6303701 -1011.31
-35.6185 -6.4660001 -1009
-35.8703 -6.8902898 -1007.44
-35.841099 -7.0248399 -1006.2
-36.109699 -7.6869798 -1004.78
-36.142101 -7.78372 -1003.53
-35.843899 -9.9545002 -996.323
-3.9017899 -4.48804 -1047.5601
-4.5882602 -4.4243498 -1047.0699
-5.1637001 -4.33389 -1046.71
-7.6646099 -3.6711099 -1045.27
-8.5922203 -3.7035201 -1044.89
-9.9857798 -3.4273701 -1044.15
-10.5681 -3.1066899 -1043.9
-11.2509 -3.22891 -1043.41
-11.9191 -3.1154799 -1043.02
-12.4836 -3.0586901 -1042.65
-13.1224 -2.93185 -1042.25
-14.0384 -2.7672701 -1041.83
-15.7303 -2.4889801 -1040.87
-16.377399 -2.23715 -1040.51
-17.022301 -2.0698199 -1040.24
-19.0457 -2.08762 -1038.0699
-19.468399 -2.0838301 -1037.64
-19.710899 -2.3080399 -1037.05
-20.8444 -2.03915 -1036.41
-21.032801 -2.2555499 -1035.79
-22.419701 -2.1564901 -1034.47
-23.2651 -2.04568 -1033.83
-24.360201 -2.1264601 -1032.47
-25.1248 -2.1861601 -1031.45
-25.407801 -2.23224 -1031.09
-25.8599 -2.2206399 -1030.63
-26.284599 -2.17453 -1030.25
-26.657801 -2.1802101 -1029.8199
-28.333599 -2.43015 -1027.13
-30.371799 -2.3891599 -1025.22
