# .PCD v0.7 - Point Cloud Data file format
VERSION 0.7
FIELDS x y z
SIZE 4 4 4
TYPE F F F
COUNT 1 1 1
WIDTH 1613
HEIGHT 1
VIEWPOINT 0 0 0 1 0 0 0
POINTS 1613
DATA ascii
39.828098 -19.936199 -973.67999
40.2472 -19.740801 -974.09003
42.030201 -18.648899 -975.84497
42.827499 -18.479799 -976.09198
42.980301 -18.287001 -976.703
43.275002 -17.975401 -977.03302
44.362499 -17.435499 -978.40601
44.567299 -16.773899 -978.73199
45.061001 -17.019899 -979.26898
45.358501 -16.817499 -979.797
45.872898 -16.5742 -980.14203
46.896099 -15.9588 -981.40601
47.241001 -15.5863 -982.35901
47.715302 -15.2172 -983.27899
47.857101 -14.5478 -983.63599
48.2206 -14.8012 -984.26501
48.492298 -14.6046 -984.77197
49.2258 -14.0222 -986.133
49.3941 -13.3432 -986.40302
49.692902 -13.166 -986.74597
50.2757 -13.2559 -987.73297
50.429001 -12.6003 -988.263
50.7645 -12.8564 -988.77002
51.137901 -12.4699 -989.76801
51.4529 -12.2688 -990.11603
51.910301 -11.2904 -991.35699
52.4133 -10.8869 -992.92401
52.8167 -10.3867 -993.84601
53.010601 -10.1799 -994.28699
53.2817 -9.85425 -995.23401
53.2145 -9.6892099 -996.211
53.7216 -9.0580702 -997.57703
53.8246 -8.7190905 -998.70599
53.9011 -8.3206501 -1000.07
54.166401 -7.4914598 -1002.56
54.267502 -6.7576299 -1005.08
54.110401 -6.2923598 -1006.7
53.904099 -5.90869 -1008.16
32.357498 -22.883499 -967.71899
32.8311 -22.651899 -968.18103
33.281399 -22.430099 -968.62299
33.759899 -22.2528 -969.06702
34.4841 -21.9359 -969.53497
35.054901 -21.7229 -969.651
35.527199 -21.4657 -970.14502
36.2309 -21.189899 -970.47198
36.783901 -20.8992 -970.98602
37.154499 -20.643 -971.60303
37.733101 -20.3759 -971.87598
38.621101 -20.106199 -972.17798
38.945999 -19.8885 -972.66699
39.4594 -19.6514 -973.05902
39.745899 -19.441299 -973.52197
40.298801 -19.2155 -973.86603
41.112999 -18.764 -974.789
41.754601 -18.491199 -975.117
42.349098 -18.2036 -975.45502
42.638401 -17.9846 -976.04602
43.0182 -17.755899 -976.47601
43.311298 -17.449699 -976.91998
43.9147 -17.152399 -977.92902
44.413399 -16.747 -978.39099
45.057899 -16.5245 -979.08301
45.3522 -16.325001 -979.58398
45.8452 -16.0737 -979.966
46.542801 -15.6589 -980.836
46.743099 -15.4523 -981.35602
46.876999 -15.2923 -981.84302
47.2537 -15.0802 -982.16302
48.528 -13.5905 -984.341
48.8689 -13.8872 -984.96301
49.009701 -13.7073 -985.49298
49.0228 -13.3151 -985.89099
50.461498 -12.0667 -988.05798
51.2421 -11.1584 -990.61499
51.7561 -10.793 -991.28302
52.697399 -10.565 -993.17297
53.108898 -9.6442404 -994.021
53.144001 -9.3472204 -995.133
53.407799 -9.0410404 -995.961
53.663799 -8.9021902 -996.65698
53.513699 -8.5591097 -997.54602
53.847198 -8.1893597 -998.45099
54.009399 -8.0247803 -998.89502
54.1451 -7.7720599 -999.995
54.124901 -6.9936399 -1002.41
54.332298 -6.6514602 -1003.36
54.027199 -5.9897199 -1006
54.173302 -5.7855701 -1006.42
54.026798 -4.7588801 -1010.03
53.6464 -4.1220899 -1012.55
32.372601 -22.338499 -967.69299
33.1833 -22.0737 -967.88098
34.1786 -21.6066 -968.69501
34.385502 -21.465799 -969.229
35.6912 -20.928301 -969.82098
36.205299 -20.680799 -970.315
36.677399 -20.367599 -970.86499
37.2155 -20.1583 -971.34698
37.866199 -19.825199 -971.70398
38.4114 -19.594999 -972.10101
38.591202 -19.4042 -972.72601
39.061798 -19.187099 -973.13501
39.8442 -18.902901 -973.25299
40.3494 -18.6667 -973.58502
40.772999 -18.464399 -974.05103
41.305698 -18.201099 -974.41901
41.459702 -18.000999 -975.12903
42.064999 -17.741301 -975.48102
42.242699 -17.5317 -976.13
42.750999 -17.269501 -976.49597
44.0616 -16.629499 -977.59302
44.751598 -16.225901 -978.39099
44.923401 -16.0333 -978.97699
45.354099 -15.8033 -979.38397
45.615501 -15.5906 -979.92999
46.021702 -15.3829 -980.34497
46.455898 -15.1263 -980.69897
46.4893 -14.8326 -981.25598
47.989899 -13.9897 -983.34302
48.729401 -13.393 -984.86798
49.174198 -12.9859 -985.78198
49.529999 -12.8222 -986.09802
50.170101 -12.4107 -986.91901
52.149399 -10.4515 -992.06403
52.1819 -9.9838896 -992.63501
52.773899 -9.35641 -993.37
53.054298 -8.9857597 -994.40698
53.008999 -8.8482103 -995.008
53.398102 -8.5675201 -995.79199
53.650799 -7.7361498 -998.422
53.815601 -7.6942101 -998.80701
53.913799 -7.3808298 -999.80798
54.0154 -6.5003099 -1002.31
54.1633 -6.1394701 -1003.77
54.358299 -5.1384301 -1006.56
53.828201 -5.1200299 -1007.36
53.656601 -4.5541401 -1009.37
53.938702 -4.25632 -1009.91
31.6754 -22.3703 -966.995
32.496899 -21.843901 -967.46002
33.030102 -21.583099 -967.90802
33.651402 -21.8251 -968.31097
33.946499 -21.273701 -968.78802
34.4772 -20.9508 -969.021
36.101799 -20.1444 -970.16101
36.5779 -19.9028 -970.72601
37.351601 -19.577299 -971.03699
38.263199 -19.1049 -972.01099
38.580101 -18.8799 -972.52197
39.204498 -18.644199 -972.815
39.917198 -18.4042 -972.98901
40.3032 -18.201401 -973.43903
41.057098 -17.744801 -974.44098
41.606098 -17.462601 -974.82599
41.806301 -17.259899 -975.45398
42.428398 -16.9953 -975.79999
42.954399 -16.7334 -976.18298
43.447399 -16.485701 -976.56799
43.930801 -16.1364 -977.51398
44.325901 -15.9384 -977.83899
44.997601 -15.5297 -978.72803
45.382801 -15.2925 -979.172
45.7719 -15.0515 -979.59198
45.947102 -14.8487 -980.20398
46.330399 -14.6577 -980.60999
46.960899 -14.2545 -981.38
46.969601 -14.1095 -981.98199
47.2514 -13.9041 -982.37299
47.5718 -13.714 -982.78699
47.886501 -13.5123 -983.23999
48.293201 -13.2819 -983.59802
49.1096 -12.5036 -985.65002
49.5942 -12.3149 -985.86298
49.792599 -12.1458 -986.36603
50.099899 -11.9503 -986.79901
50.302299 -11.757 -987.30499
50.710098 -11.0447 -988.729
51.201099 -10.5264 -990.14001
51.167801 -10.4655 -990.948
51.6549 -9.7061501 -991.50299
52.775501 -9.1337099 -994.06
53.5443 -8.0526304 -997.32599
53.963799 -6.7364602 -999.60498
54.078899 -6.4099998 -1001.23
54.021702 -6.0058599 -1002.11
54.208801 -5.4905701 -1003.62
54.196499 -4.9463301 -1005.54
54.402901 -4.8233299 -1006.32
54.119301 -4.2090302 -1008.13
53.337002 -3.01215 -1012.91
43.234901 0.292786 -1032.46
33.193298 -21.060101 -967.55798
33.565899 -20.8654 -968.09497
34.013 -20.637899 -968.48401
34.897301 -20.2882 -969.56097
35.1852 -19.952101 -969.79999
37.784302 -18.8543 -971.35797
38.2094 -18.623899 -971.82397
38.681801 -18.3904 -972.24701
39.286999 -18.196199 -972.79102
39.584702 -17.938101 -973.01801
40.1861 -17.7239 -973.65302
40.429901 -17.5002 -973.91302
40.9632 -17.238199 -974.29498
41.597801 -16.979601 -974.625
41.730301 -16.7607 -975.34198
42.453602 -16.476 -975.591
42.8708 -16.229099 -976.15997
43.541901 -16.002001 -976.42401
44.166698 -15.459 -977.75299
44.573898 -15.2497 -978.13599
44.9286 -15.0163 -978.57397
45.643299 -14.5905 -979.51501
46.803902 -13.7773 -981.28601
47.103298 -13.5946 -981.68201
47.4095 -13.4204 -982.06
47.6077 -13.0551 -983.24402
48.461399 -12.5972 -983.98602
49.0648 -12.0152 -985.48798
49.3326 -11.8567 -985.86102
49.476601 -11.6977 -986.35498
49.754799 -11.3719 -986.78302
50.130501 -11.2779 -987.20398
50.191002 -10.9918 -987.67102
50.730701 -10.6599 -988.76099
51.252998 -10.0197 -990.01703
52.145802 -8.6476097 -992.69299
52.376301 -8.4179201 -993.19
52.798401 -8.2248201 -994.67102
53.1661 -8.2250299 -995.11298
53.465099 -7.3324599 -997.11401
53.663101 -6.7188902 -998.02698
54.318298 -6.11904 -1001.31
54.122601 -5.43747 -1003.03
54.074501 -5.0830402 -1004.01
54.061501 -4.9675899 -1004.5
54.252602 -4.4107399 -1006.17
53.510101 -3.18451 -1010.77
53.530201 -2.50787 -1012.96
32.810299 -20.8172 -967.53699
35.910198 -19.1826 -969.92102
37.721699 -18.343599 -971.16699
37.9827 -18.1315 -971.80499
38.578999 -18.000401 -972.15997
39.730499 -17.430401 -972.73499
40.959801 -16.730301 -974.08197
41.657501 -16.4744 -974.39001
41.785198 -16.252899 -975.10303
42.671299 -15.9382 -975.30603
42.926601 -15.7139 -976.02502
43.6618 -15.451 -976.203
43.919601 -15.1421 -977.18402
44.186501 -14.9477 -977.57001
44.780201 -14.5484 -978.49799
45.261902 -14.2944 -978.85303
45.578098 -14.0899 -979.34399
45.831501 -13.8607 -979.888
46.150002 -13.6651 -980.33099
46.536701 -13.4795 -980.68298
46.694302 -13.2978 -981.19702
47.035 -13.0903 -981.51202
47.193401 -12.9369 -982.02502
47.671799 -12.5424 -982.97498
48.370499 -12.0924 -983.84601
48.7374 -11.7171 -984.91901
48.9035 -11.5192 -985.39502
49.5714 -11.1558 -986.07001
49.7617 -10.9908 -986.51398
50.094101 -10.7943 -986.95398
50.408798 -10.553 -987.41302
50.7006 -10.1945 -988.60303
50.9874 -9.8523302 -988.93701
51.233299 -9.6454496 -989.98297
51.711498 -8.5122604 -991.59998
53.205101 -6.6409502 -996.96802
53.955101 -5.7577701 -999.18298
53.8587 -5.5078702 -1000.19
53.9986 -5.4860201 -1000.93
53.8894 -4.7535701 -1003.34
32.423199 -20.8076 -967.09497
32.9641 -20.0476 -967.43597
33.395699 -19.8276 -967.88098
34.2859 -19.3969 -968.54901
34.846699 -19.2038 -969.258
35.227798 -18.944599 -969.36401
35.860401 -18.6828 -969.776
36.524101 -18.393999 -970.16699
36.740501 -18.1931 -970.84998
37.613201 -17.885599 -971.04199
38.0648 -17.617201 -971.54303
38.552101 -17.392099 -971.96899
39.126202 -17.150801 -972.25201
39.5728 -16.9335 -972.63702
39.979198 -16.719601 -973.07202
40.577301 -16.4583 -973.383
42.1577 -15.6802 -974.96399
43.257401 -15.2015 -975.61603
43.497398 -15.0049 -976.13202
43.718498 -14.6568 -977.14203
44.322701 -14.4204 -977.27899
44.564499 -14.0734 -978.47198
45.945099 -13.3687 -979.60797
46.339802 -12.9954 -980.63702
46.697399 -12.8033 -981.00299
46.813801 -12.643 -981.51001
47.361099 -12.2433 -982.35101
47.729599 -12.0441 -982.73798
48.247601 -11.6108 -983.75299
48.543201 -11.1641 -984.664
48.797501 -11.0657 -985.30103
49.361698 -10.6845 -986.03101
49.615501 -10.487 -986.41998
50.348598 -10.0991 -987.21997
50.843399 -9.6879396 -988.26599
50.652302 -9.4317904 -988.70203
51.2444 -9.1392899 -989.797
51.5952 -8.8449402 -990.58398
51.715599 -8.3459501 -992.19202
52.1115 -7.9621401 -993.18903
52.390999 -7.4661899 -994.70697
52.7859 -6.8891902 -995.39502
53.045502 -6.32061 -996.14801
53.195301 -6.3706102 -996.75403
53.826401 -5.4255099 -999.28601
53.6968 -4.9984698 -1000.02
53.432301 -3.28494 -1006.75
41.3923 1.96304 -1034.14
34.292099 -18.9051 -968.58502
34.825699 -18.616899 -968.72998
35.232498 -18.417601 -969.177
35.6423 -18.191099 -969.68201
36.467701 -17.8909 -969.97198
37.058201 -17.607401 -970.39398
37.326698 -17.437099 -970.97498
37.961399 -17.137501 -971.41302
38.488499 -16.893801 -971.76703
38.841801 -16.668699 -972.26801
39.4991 -16.4398 -972.46899
39.836498 -16.2453 -972.948
40.606098 -15.9244 -973.17902
41.487499 -15.4588 -974.20203
41.8699 -15.2281 -974.67999
42.549702 -14.9172 -975.112
43.104401 -14.7038 -975.53497
44.476898 -13.5663 -978.31897
45.267799 -13.0109 -979.14502
45.479801 -12.8376 -979.54797
46.1306 -12.6543 -979.94202
46.216801 -12.5233 -980.52197
46.330898 -12.3174 -981.08002
46.912201 -12.1183 -981.20502
46.9669 -11.9603 -981.80701
47.255901 -11.7642 -982.24402
47.4128 -11.549 -982.77698
47.7659 -11.1776 -983.16699
48.248199 -11.1097 -983.54602
48.053299 -10.8701 -983.99597
48.9454 -10.5396 -984.97699
49.3461 -10.1832 -985.83698
50.058498 -9.7943096 -986.48199
50.243698 -9.58675 -987.07599
50.2827 -9.1091003 -988.02399
51.049 -8.1579704 -989.539
51.8629 -7.8133001 -991.91101
52.009899 -7.4541602 -993.04999
52.214699 -6.60324 -994.69299
52.988899 -6.0898099 -995.763
53.059898 -5.62783 -996.56702
53.7127 -5.0493498 -997.92798
53.378101 -4.5462899 -1000.03
53.713299 -4.3657598 -1000.26
53.412201 -4.2691302 -1001.52
53.6036 -3.4467499 -1004
53.5009 -2.5955601 -1006.57
53.6441 -2.7553599 -1007.89
53.630798 -1.90741 -1009.16
29.5366 -20.4475 -964.78601
35.7192 -17.6765 -969.42798
36.965 -17.1084 -970.26099
37.918201 -16.6096 -971.21002
38.379601 -16.393101 -971.63702
38.743301 -16.181999 -972.10901
39.790199 -15.6868 -972.75702
40.4617 -15.3908 -973.21002
41.636799 -14.9239 -973.98999
42.026199 -14.5778 -974.63501
42.4203 -14.4158 -974.97699
42.890701 -14.2008 -975.45898
43.520401 -13.9664 -975.71301
44.569199 -13.0518 -978.04102
45.164398 -12.7845 -978.34802
46.2425 -11.9858 -980.29102
46.440701 -11.8112 -980.78601
47.1087 -11.4183 -981.474
47.186001 -11.2583 -982.07001
47.453899 -10.8276 -982.57397
48.168098 -10.6296 -983.41101
48.487 -10.3951 -983.85199
48.7449 -10.212 -984.29199
48.757099 -10.0369 -984.91602
49.290401 -9.3819304 -985.77698
50.069901 -9.0840597 -987.021
50.4244 -8.9012699 -987.51801
50.434898 -8.4946899 -987.91803
50.982601 -8.4906397 -988.396
51.3256 -7.84619 -990.388
51.7006 -7.0241098 -991.724
52.192001 -6.4645901 -992.56097
52.8223 -5.1217098 -996.47803
53.485001 -4.7481499 -997.27899
53.553799 -4.45959 -998.26599
53.364899 -4.05165 -999.802
53.4599 -3.1181099 -1002.98
53.4883 -2.7902 -1003.96
53.601101 -2.65483 -1004.34
53.5154 -2.6238999 -1004.93
35.725201 -17.135401 -969.23602
36.256302 -16.8811 -969.73102
36.739601 -16.6388 -970.229
37.466599 -16.347099 -970.547
37.807701 -16.1262 -971.09302
38.325901 -15.8509 -971.513
38.9454 -15.5966 -971.74298
39.3335 -15.4066 -972.15601
40.135799 -15.1033 -972.43701
40.635601 -14.8992 -973
41.115002 -14.6578 -973.44202
42.777599 -13.7222 -975.35498
43.429401 -13.4798 -975.58398
43.308998 -13.0732 -976.57098
44.664101 -12.5294 -977.771
45.2938 -12.0747 -978.74103
45.5089 -11.8955 -979.32098
45.992298 -11.6615 -979.63898
46.331402 -11.3168 -980.66302
48.099602 -10.127 -983.27197
48.952599 -9.3769102 -985.133
49.407101 -8.5027103 -985.75702
50.502201 -8.3769398 -987.25
50.960499 -7.3811302 -989.16199
51.2379 -7.01759 -989.53198
51.768799 -6.4857101 -990.77802
51.750401 -6.4440598 -991.57001
52.1577 -5.9429898 -992.362
52.337101 -5.6249399 -993.89099
52.712601 -5.1097698 -994.68799
52.644402 -4.66538 -996.43201
53.097801 -4.29632 -997.29999
53.4482 -4.1096301 -997.56299
53.407001 -3.3914499 -1000.33
53.361301 -3.0949399 -1001.26
53.3997 -2.29913 -1003.82
53.756302 -1.93646 -1004.9
53.670601 -1.7337199 -1005.5
53.426601 -1.12124 -1007.77
53.551102 -0.793549 -1008.82
53.5509 -0.29126 -1010.5
34.733002 -17.0749 -968.32397
35.2523 -16.8617 -968.64099
36.195702 -16.3281 -969.56403
36.8004 -16.1017 -969.979
37.680401 -15.5694 -970.93103
38.4058 -15.2542 -971.36798
40.212601 -14.4576 -972.521
40.7262 -14.3361 -972.74103
41.1576 -14.1165 -973.20697
41.873798 -13.5252 -974.34497
42.7617 -13.1904 -975.14697
43.221699 -12.833 -975.47998
43.320599 -12.5318 -976.42999
45.5173 -11.3709 -979.10101
45.7654 -11.1989 -979.61102
45.796398 -10.862 -979.93799
46.326099 -10.8013 -980.44202
46.578098 -10.6104 -980.83801
46.8078 -10.4361 -981.28601
47.5271 -10.0311 -982.07599
48.229698 -9.3969402 -983.64502
48.560398 -9.18958 -984.03699
48.819801 -9.0363798 -984.43799
48.641201 -8.6491699 -984.90002
48.916302 -8.2268105 -985.33698
49.119999 -8.04669 -985.77197
49.993698 -7.59863 -986.526
50.661701 -7.67237 -987.60602
51.3242 -6.3393998 -989.79602
51.648102 -5.8439002 -991.32703
51.9533 -5.4653502 -992.33002
52.2953 -5.09869 -993.71899
52.413799 -4.76157 -994.75897
52.676498 -4.1740999 -996.20801
52.938801 -3.8010399 -997.198
53.146999 -3.37762 -998.60797
53.423 -2.1185501 -1002.58
53.497898 -1.94508 -1003.07
53.519699 -1.80453 -1003.54
53.716702 -1.2246701 -1005.28
53.432999 -0.64982599 -1007.56
53.755501 -0.21899401 -1008.68
52.237099 0.66986102 -1012.84
50.846901 1.9532501 -1018.67
31.555201 -17.814501 -966.28601
32.188702 -17.6262 -966.61298
36.647202 -15.5812 -969.97101
38.474098 -14.736 -971.21899
39.259499 -14.3729 -972.01801
39.800098 -14.1533 -972.453
40.4492 -13.8982 -972.73499
41.124901 -13.6409 -973.02002
41.047298 -13.456 -973.81897
41.549099 -13.2335 -974.17999
42.4548 -12.95 -974.27197
42.748199 -12.7135 -974.91803
43.2841 -12.4885 -975.25598
44.335098 -11.5779 -977.63397
44.848801 -11.3209 -977.94397
45.3825 -10.7027 -978.96802
45.982498 -10.4998 -979.87598
46.278099 -10.2896 -980.26501
46.561501 -10.116 -980.65503
47.056 -9.7637596 -981.55402
47.5219 -9.1185303 -982.52399
47.837299 -9.1422596 -983.02802
50.135399 -6.7094202 -987.638
51.1367 -6.15732 -988.67798
51.208801 -5.8673501 -989.70203
51.4907 -5.3445101 -991.23602
51.8997 -4.9808998 -992.20502
52.217499 -4.7568698 -992.539
52.402802 -4.5678101 -993.61102
52.594601 -3.97205 -994.91101
52.623402 -3.7005 -996.06897
52.993198 -2.6745901 -999.448
53.3353 -2.1044199 -1000.85
53.348701 -1.3034101 -1003.49
52.9673 -0.368622 -1006.98
53.169701 0.63543701 -1010.12
52.570301 1.22071 -1012.69
30.445601 -17.884001 -965.06
30.9286 -17.6299 -965.62
31.447901 -17.465099 -966.15997
32.184601 -17.105 -966.36499
40.024601 -13.527 -972.22302
41.158798 -12.932 -973.44598
41.8517 -12.475 -974.41101
42.613899 -12.2573 -974.72601
42.973999 -11.936 -975.18103
44.130901 -11.0894 -977.57703
44.8969 -10.5195 -978.35602
45.826599 -10.1761 -979.138
45.931198 -9.7532997 -980.10602
46.6703 -9.6092701 -980.36298
47.049599 -9.2708302 -981.35699
47.3353 -9.0633698 -981.82397
47.585899 -8.5353098 -982.79797
48.117699 -8.4398403 -983.32599
48.451 -8.21873 -983.70801
48.690201 -7.2501602 -985.12299
49.943699 -6.6690898 -986.11603
50.126801 -6.85533 -986.90698
51.5051 -5.0601501 -991.08801
52.711399 -2.85216 -996.90997
52.696201 -2.70858 -997.48999
53.3922 -1.67239 -1000.89
53.516499 -0.802719 -1003.17
52.997002 -0.218964 -1005.86
53.195 0.63354498 -1008.31
53.173302 0.905945 -1009.31
52.208302 1.6938699 -1012.75
51.902199 1.90637 -1013.66
51.062099 2.6726999 -1017.05
50.377399 3.08478 -1018.76
31.696199 -16.621599 -966.49902
36.8727 -14.5234 -969.59302
40.495399 -12.8684 -972.276
40.887299 -12.6471 -972.74902
41.462002 -12.1785 -973.96399
41.979099 -11.9683 -974.09601
42.599098 -11.6843 -974.505
43.001999 -11.5099 -975.00098
43.342999 -11.1272 -976.047
43.499599 -10.9848 -976.487
44.336601 -10.5127 -977.21301
45.319 -9.8886003 -978.62402
45.728001 -9.6822701 -978.99597
45.7365 -9.4663696 -979.55499
46.695801 -8.9390898 -980.77899
47.131802 -8.4467497 -981.82202
47.6646 -8.0320702 -982.68799
47.989799 -7.95016 -983.216
48.489899 -7.5618601 -984.10199
48.728298 -7.3756599 -984.50897
49.553799 -6.8467102 -985.62598
50.1185 -6.45682 -986.65601
50.088902 -6.21387 -987.36499
51.025299 -5.5239801 -989.10199
51.342602 -4.7983699 -990.49597
52.014 -4.4566202 -991.914
52.224899 -4.2483401 -992.341
52.399399 -2.9426 -995.72302
52.4659 -2.3882301 -996.83698
53.051498 -1.5893199 -999.12799
53.308498 -1.22281 -1000.74
53.3577 -0.483307 -1003.15
52.968601 1.32016 -1009.33
51.070702 3.1672101 -1016.85
36.394199 -14.2744 -968.85901
36.785801 -14.0307 -969.45898
39.9557 -12.6181 -971.71997
40.123699 -12.4266 -972.35602
40.6637 -12.1743 -972.69598
41.532299 -11.6856 -973.81097
42.080502 -11.4005 -973.86603
42.365002 -11.2151 -974.57397
42.988998 -10.9998 -974.84399
43.4025 -10.6032 -975.78699
44.089401 -10.0592 -977.16998
44.662701 -9.8292198 -977.466
44.992699 -9.61588 -977.93298
45.2598 -9.3875103 -978.45697
46.1259 -8.8046103 -979.758
46.4883 -8.6296902 -980.08398
47.030899 -8.2585497 -980.96198
47.186501 -8.0608501 -981.52502
48.515099 -7.0695901 -983.87
48.977699 -6.6948199 -984.65802
49.438301 -6.3715601 -985.51501
51.087399 -5.0317101 -988.77502
50.906898 -4.7336102 -989.37299
51.436199 -4.3607702 -990.92902
52.1581 -3.77493 -992.22803
52.190201 -3.3037701 -993.17798
52.2864 -2.7816801 -994.76501
52.8993 -1.66763 -998.00201
53.0187 -0.85418701 -1000.54
52.8424 1.74692 -1009.24
51.959599 2.3503101 -1011.82
51.534801 2.7142601 -1013.42
30.215599 -16.187401 -965.41699
30.989901 -15.9062 -965.659
31.5865 -15.6418 -966.08899
35.717098 -14.0492 -968.18402
36.732399 -13.5206 -969.26898
39.889801 -12.0942 -971.552
40.403599 -11.7163 -972.64801
41.623199 -11.1332 -973.21198
41.746601 -10.9421 -974.09497
42.5966 -10.6977 -974.23901
42.823898 -10.512 -974.80499
43.9711 -9.6015501 -977.06097
45.068501 -8.9184704 -978.40399
45.5881 -8.6770897 -978.68701
45.896999 -8.4990501 -979.08698
45.967701 -8.3350096 -979.68903
46.405899 -8.1240196 -979.93701
46.7897 -7.6680899 -981.117
47.067001 -7.4487 -981.55402
47.4907 -7.1135898 -982.39801
48.231899 -6.7528501 -983.27301
48.6343 -6.3969698 -984.17401
48.8806 -6.2308202 -984.51202
49.304699 -5.8763599 -985.41901
49.3759 -5.6959 -986.05103
49.386902 -5.5467401 -986.67603
49.598301 -5.2546401 -986.91699
49.807701 -5.0999799 -987.68701
51.23 -3.7485001 -990.60199
52.0341 -2.7768199 -993.06
52.1446 -2.2469101 -995.65198
52.439999 -1.89587 -996.625
52.504398 -1.10596 -998.25897
53.310501 -0.45159101 -1000.8
53.2136 0.64351702 -1002.82
53.125401 1.2298599 -1005.44
52.367199 2.1261599 -1009.04
53.003601 2.49896 -1009.76
35.285999 -13.6179 -968.32599
35.865501 -13.4684 -968.617
36.7253 -13.0323 -969.05902
37.348801 -12.7667 -969.38202
38.8577 -12.0873 -970.59698
39.154301 -11.9021 -971.17902
39.706402 -11.6528 -971.49902
40.951 -10.9376 -972.68298
41.752602 -10.6101 -973.06897
42.1367 -10.4211 -973.65198
42.612801 -10.2298 -974.07599
42.919701 -9.9859304 -974.61499
43.613499 -9.5975304 -975.284
43.909698 -9.2735701 -976.20599
43.979 -9.0959196 -976.84698
44.5373 -8.8426504 -977.11902
44.927101 -8.4463902 -978.29303
45.432301 -8.2214603 -978.60602
46.091202 -7.8384199 -979.38
47.694801 -6.6691599 -982.12097
47.542999 -6.4428401 -982.651
48.130699 -6.2927499 -983.14899
47.860699 -6.1117601 -983.52399
48.320702 -5.9633799 -984.20398
48.6646 -5.7723598 -984.52399
49.165501 -5.2346601 -985.98297
49.606602 -4.81392 -987
50.3951 -4.0745502 -988.23297
50.573399 -4.05897 -988.61401
51.226601 -3.19312 -990.461
51.755699 -2.9923799 -991.49298
51.897999 -2.2721601 -992.94299
51.995499 -2.2367799 -993.896
52.5406 -0.43239599 -997.75299
52.667198 -0.52462798 -998.12701
52.765598 -0.080398597 -998.76202
53.273701 0.99005097 -1002.68
52.713402 3.1117101 -1009.62
51.7883 3.9211099 -1013.15
29.958799 -15.2146 -965.13702
35.473 -13.0539 -967.92401
37.114601 -12.274 -969.50098
37.8853 -11.7385 -970.36798
38.802799 -11.5664 -970.41803
39.175999 -11.342 -970.90698
39.669701 -11.1035 -971.29901
41.0993 -10.3202 -972.76801
41.422501 -10.1676 -973.17902
42.0979 -9.9310198 -973.50403
42.426399 -9.7025995 -974.02399
43.000401 -9.4779701 -974.28497
43.9006 -8.4686899 -976.789
44.776001 -8.1315203 -977.47101
44.983398 -7.9299202 -978.06
46.343201 -6.9855499 -980.17499
46.5737 -6.79632 -980.68298
46.937901 -6.5706601 -981.07703
47.046902 -6.4091902 -981.70599
47.743801 -5.6806598 -982.94299
48.344601 -5.5964098 -983.35797
48.831501 -5.0924802 -984.755
49.1399 -4.7255301 -985.80103
49.662201 -4.31252 -986.74799
50.545799 -3.46631 -989.00702
50.558201 -3.29407 -989.56799
50.7859 -2.622 -989.76099
51.514198 -1.55181 -992.80902
51.913101 -1.24404 -993.53003
51.9426 -1.22961 -994.25897
51.878502 -0.96490502 -995.14301
52.322399 -0.44616699 -996.591
52.227299 0.051902801 -997.77502
52.822102 0.39907801 -998.38599
52.858601 1.4818701 -1002.1
53.0942 2.0253 -1004.09
52.7015 2.51056 -1006.04
52.667099 3.1480999 -1008.29
52.481998 3.45485 -1009.11
29.870199 -14.6567 -965.30798
35.427601 -12.5546 -967.76001
35.752499 -12.3385 -968.336
36.211601 -12.0896 -968.758
36.751202 -11.847 -969.37201
38.099098 -11.2815 -969.992
38.5574 -11.0661 -970.40198
38.873001 -10.8673 -970.922
39.3549 -10.6288 -971.29401
40.176701 -10.1967 -971.87299
41.0938 -9.8638897 -972.336
41.324299 -9.66998 -973.08801
42.134998 -9.3808098 -973.29999
42.541599 -9.1736498 -973.74799
42.771198 -8.9744501 -974.255
43.283798 -8.7566299 -974.54901
43.911701 -8.0480003 -976.53101
44.6161 -7.64994 -977.38599
45.250198 -7.1966901 -978.31299
45.792 -6.84302 -979.177
46.303101 -6.4914198 -980.01703
46.880402 -6.0960698 -980.90997
47.171799 -5.8664198 -981.38397
47.514999 -5.69345 -981.823
47.704102 -5.4663501 -982.37903
47.754799 -5.3040199 -982.97803
49.015099 -4.43049 -984.98999
48.9547 -4.0100999 -985.54303
49.462002 -3.3137801 -986.508
49.819099 -3.6217301 -987.05902
50.3741 -2.4535301 -988.745
50.810101 -1.9171799 -990.15503
51.852699 -0.74989301 -993.35498
52.030399 -0.65390003 -994.15997
51.946499 -0.40310699 -995.02301
52.139702 0.083724998 -995.98199
52.391102 0.57529402 -997.41901
52.617298 0.72936201 -997.73102
52.6661 0.85518599 -998.211
52.715099 1.63588 -1000.92
52.684601 1.7998 -1001.72
53.0798 2.8605001 -1004.68
30.100401 -13.9852 -965.17902
35.3153 -12.0524 -967.60699
36.9053 -11.2802 -969.02002
38.483601 -10.587 -970.23798
39.422199 -10.0106 -971.19397
40.030998 -9.8675203 -971.30103
41.208099 -9.3462 -972.13599
42.0662 -8.8916397 -973.14001
43.4216 -8.0841904 -974.86499
43.842201 -7.5510998 -976.42902
44.331501 -7.16149 -977.37097
44.925701 -6.92628 -977.64801
45.320702 -6.5554099 -978.66602
45.599899 -6.36623 -979.091
46.067001 -6.1768599 -979.34998
46.550499 -5.7893701 -980.27502
46.7328 -5.59938 -980.802
47.355301 -4.6841002 -981.53998
48.065601 -4.6132698 -983.14203
48.2631 -4.45187 -983.56
48.850101 -3.40556 -984.711
50.8228 -1.42418 -989.93799
50.901402 -1.1581399 -991.37097
51.687 0.049102802 -994.81897
52.586498 1.24187 -997.54602
52.444599 1.34602 -998.14899
52.641201 2.32213 -1001.23
53.185501 2.63272 -1002.19
52.9991 3.1380301 -1003.76
52.8769 3.3508899 -1004.76
52.957802 3.6769199 -1005.66
52.741699 3.7855501 -1006.25
52.625099 4.10111 -1007.36
52.484402 4.6216998 -1008.95
51.9244 4.7108202 -1009.98
35.1049 -11.5222 -967.66498
35.702801 -11.2955 -968.03302
36.162201 -11.0322 -968.56702
36.772598 -10.7343 -969.00598
37.762299 -10.2794 -969.76001
38.120499 -10.0777 -970.25201
38.842602 -9.8410997 -970.49597
40.428799 -9.1259203 -971.62097
41.071201 -8.8556995 -972.04602
41.621601 -8.6263103 -972.48297
42.0952 -8.36236 -972.95398
42.441002 -8.1632795 -973.45398
42.9743 -7.9208398 -973.72198
43.406799 -7.3706398 -974.87799
44.482201 -6.6342702 -977.047
45.4744 -6.0342102 -978.33801
46.003399 -5.67382 -979.17603
46.070599 -5.20401 -979.85602
46.903999 -4.86307 -981.17297
47.822899 -4.2841401 -982.50299
48.083302 -4.0928302 -982.90503
48.223999 -3.7622001 -983.99701
48.595699 -3.58584 -984.27399
48.892502 -2.7523701 -985.20001
49.461102 -2.3898001 -986.58197
50.083302 -1.7894599 -987.409
50.327 -1.46059 -988.32599
50.243301 -1.0181 -990.21198
50.8601 -0.60710901 -990.94
51.746498 0.38364401 -993.534
51.5886 0.56912202 -994.64502
52.087101 1.08463 -995.58197
52.682701 2.6436801 -1000.47
52.838902 2.81317 -1001.1
52.983101 4.39502 -1006.13
52.074402 5.1778002 -1009.31
34.135601 -11.367 -967.10303
34.787601 -11.1005 -967.55701
35.6693 -10.7989 -967.828
36.647499 -10.2811 -968.745
37.593102 -9.8348999 -969.56799
38.6119 -9.3769503 -970.448
39.487598 -8.9594097 -970.87903
39.957199 -8.8772402 -970.98401
40.196701 -8.6718597 -971.63202
40.942902 -8.2779503 -972.01202
41.569801 -8.09132 -972.35699
42.158501 -7.83426 -972.73297
42.073002 -7.6557298 -973.203
42.859501 -7.4540601 -973.66199
43.1395 -7.25772 -974.09198
43.823101 -6.54913 -976.08801
44.408501 -6.1554499 -976.89899
44.673901 -5.9621601 -977.40503
44.9053 -5.7505598 -977.91498
45.372101 -5.3944502 -978.83502
46.095798 -4.9879498 -979.50897
47.5942 -3.96017 -981.79199
47.9189 -3.2369101 -983.25
49.421101 -1.83725 -985.89899
49.8283 -1.30225 -987.401
50.198399 -1.12701 -988.39001
50.299301 -0.46326399 -989.935
50.908001 -0.12506101 -991.10797
51.276798 0.42723799 -992.13397
51.563202 0.92102098 -994.07599
51.667999 1.09229 -994.54303
52.0168 1.90253 -996.91199
52.434399 2.50594 -998.22101
52.552601 3.4454801 -1001.41
52.301399 4.0875502 -1003.98
52.225201 4.2748899 -1004.63
52.777401 4.7912002 -1005.91
50.549599 6.72614 -1013.97
50.3312 7.0370798 -1015.08
34.282001 -10.8316 -966.75098
34.966099 -10.5883 -967.17999
35.338501 -10.299 -967.823
36.102901 -10.0154 -968.10999
36.4226 -9.8081703 -968.69598
37.5709 -9.32586 -969.45697
38.284401 -9.0480404 -969.68298
38.672501 -8.8681202 -970.15601
39.689098 -8.4803495 -970.94299
41.138699 -7.8359699 -971.62
41.664398 -7.60252 -972.11499
42.558899 -7.1369801 -973.03998
43.0242 -6.9211302 -973.39099
42.971199 -6.6873498 -974.02502
43.832199 -6.0438299 -975.90002
43.9473 -5.6163301 -976.82898
44.9771 -5.2203898 -977.63599
45.263199 -5.0191498 -978.065
45.3339 -4.8895798 -978.625
45.7743 -4.6744099 -978.88397
46.520302 -4.0953798 -980.315
47.429401 -3.47015 -981.716
47.697701 -3.27953 -982.117
47.7798 -3.11532 -982.71503
48.063 -2.8085699 -983.67902
48.602798 -2.5813899 -983.83698
50.680801 0.40479299 -990.66699
51.029701 0.64242601 -991.93402
52.1632 2.8157301 -997.73602
52.130699 2.87341 -998.31598
52.483002 3.9003 -1001.79
52.801399 4.6077299 -1003.55
52.374001 4.7858 -1004.24
52.322899 5.8071699 -1007.79
52.322102 6.0856199 -1008.74
34.080502 -10.3333 -966.67902
34.722801 -10.0813 -967.10797
35.4916 -9.7709503 -967.47498
36.342201 -9.3275404 -968.52502
36.779701 -9.1105404 -968.84003
37.5821 -8.8671598 -969.35303
37.7831 -8.6080904 -969.849
39.851101 -7.8452501 -970.99103
40.994598 -7.3393698 -971.53601
41.721802 -6.8906898 -972.698
42.504299 -6.6125798 -972.87097
42.641602 -6.43015 -973.44501
42.970901 -6.2179298 -973.85999
43.895199 -5.3987699 -975.91302
43.877701 -5.1937299 -976.89099
44.8241 -4.7344398 -977.53497
45.067001 -4.5376701 -977.99701
45.2687 -4.3783498 -978.47101
45.904999 -4.0031099 -979.21002
46.157398 -3.67957 -979.89899
46.428501 -3.6166699 -980.16498
47.183998 -3.1596799 -981.01099
47.430698 -2.96246 -981.495
47.965401 -2.4555399 -982.92297
47.966702 -2.1790199 -983.45697
48.773998 -1.73272 -984.84198
49.639599 -0.547943 -987.55798
49.930901 -0.48848701 -988.23602
50.305099 -0.29701999 -988.46399
51.0364 0.58074999 -990.979
51.371201 1.70119 -992.68298
52.248798 3.4486101 -997.95203
52.1931 3.91101 -999.64801
52.487701 4.9765902 -1002.9
52.191002 5.2351999 -1004.17
52.427399 5.4324799 -1004.5
52.488499 5.7768698 -1005.67
52.225201 6.4173002 -1008.07
33.916302 -9.8600502 -966.56299
36.358898 -8.8084803 -968.29901
37.070499 -8.3542204 -969.31799
37.793598 -8.1143303 -969.62903
38.626301 -7.8440399 -969.745
38.988201 -7.6428599 -970.31403
40.307899 -7.1493001 -970.93701
40.594601 -6.8935499 -971.61102
41.857201 -6.4065599 -972.31
42.188599 -6.16853 -972.81897
42.489399 -5.9717002 -973.30298
42.791401 -5.8271198 -973.76599
43.290199 -5.5733099 -973.99597
43.7556 -5.04636 -975.646
43.9207 -4.68683 -976.68903
44.764099 -4.2515001 -977.37799
45.022099 -4.0920801 -977.80103
45.337002 -3.8849299 -978.19397
45.762501 -3.5357699 -979.09601
47.188801 -2.5105901 -981.461
48.444698 -1.6628 -983.53699
48.4147 -1.27648 -984.92102
49.961102 0.166382 -987.979
50.189701 0.140617 -988.37903
50.620602 0.88270599 -990.5
51.0117 1.561 -991.69299
51.301102 2.2019 -993.65802
51.665901 2.18291 -994.125
52.344898 4.5956702 -999.86798
52.1591 5.6988802 -1004.53
52.4949 6.2436399 -1005.37
51.470901 7.2986798 -1010.21
33.971199 -9.4534302 -966.59497
34.675201 -9.0714703 -966.64203
39.1432 -7.1331401 -970.03802
39.649799 -6.9140501 -970.42902
41.067799 -6.16328 -971.82898
41.620998 -5.9281201 -972.19299
41.937099 -5.70155 -972.72601
42.114101 -5.6053801 -973.16803
42.900501 -5.27493 -973.36902
43.638302 -4.5040302 -975.521
43.7551 -4.23276 -976.42499
44.638802 -3.7737601 -977.25098
45.001301 -3.5820701 -977.61902
45.691002 -3.0362599 -978.93701
45.955399 -2.86237 -979.383
46.159698 -2.65993 -979.95502
47.0182 -2.0266299 -981.367
47.6348 -1.6444401 -982.16602
47.778702 -1.2575099 -983.164
48.410801 -0.96485102 -983.91998
48.401798 -0.76439703 -984.724
49.172001 -0.405182 -985.47803
49.328999 -0.18189199 -985.94598
49.609901 0.163376 -986.92499
49.731098 0.60324103 -987.789
50.0718 0.64415002 -988.25098
50.354198 0.82233399 -988.60199
50.729301 1.69971 -990.59802
51.036598 2.2148099 -992.04498
51.539501 3.18015 -994.88702
52.491501 5.3643198 -1001.41
52.004299 6.3706899 -1004.41
52.189098 6.5595198 -1004.8
51.8022 7.2590299 -1008.03
51.803799 7.6570001 -1008.88
34.515099 -8.6021795 -966.54498
35.181999 -8.3257599 -967.00598
39.2449 -6.64432 -969.85699
39.780201 -6.1978898 -970.867
40.463699 -5.90553 -971.18103
40.676399 -5.6955299 -971.81403
41.104 -5.5379 -972.16302
41.7346 -5.2460799 -972.58002
42.400299 -4.8295298 -973.47699
43.107101 -4.4323401 -974.26099
43.650799 -4.02631 -975.20398
43.597698 -3.71823 -976.55603
43.9426 -3.52316 -976.70001
44.803902 -3.1108899 -977.55298
45.107399 -2.91171 -977.93103
45.439499 -2.7151201 -978.29999
45.6465 -2.5551701 -978.78198
45.7006 -2.2864101 -979.401
46.051899 -2.1853199 -979.81799
46.647598 -1.9341 -980.06
46.903702 -1.56642 -981.26801
47.299301 -1.36471 -981.60498
47.801498 -0.69543499 -983.03802
48.460602 -0.486206 -983.70697
48.358501 -0.182953 -984.38
49.3661 0.48396301 -986.28003
49.8176 1.1701 -987.69202
50.6231 1.8619 -990.05798
50.439301 2.15976 -990.383
51.456699 3.6551099 -993.62402
52.139599 5.5186501 -1000.17
52.081501 6.8519902 -1004.32
51.950298 7.5713501 -1006.93
51.355 8.4318705 -1009.93
39.616901 -5.6312599 -970.84198
40.181801 -5.4498701 -971.08099
40.6381 -5.1960101 -971.53497
41.6366 -4.7613802 -972.34698
42.313999 -4.3400998 -973.21899
42.7327 -4.1767702 -973.54602
43.7271 -3.2137899 -976.20099
44.169701 -2.9925201 -976.50897
44.938999 -2.4323101 -977.85901
45.381302 -2.2364199 -978.12402
45.577301 -2.06621 -978.58801
45.8284 -1.85023 -979.05298
46.153999 -1.65927 -979.50403
46.504799 -1.28111 -980.651
47.4174 -0.69391602 -981.91498
47.7248 -0.375801 -982.89301
48.098598 -0.1716 -983.15698
48.556301 0.15062 -984.24597
48.961201 1.26826 -985.58301
49.730801 1.46371 -987.51599
50.009998 2.8082099 -990.11102
50.834999 3.3685999 -991.19098
51.131001 3.0153799 -991.70099
51.051701 3.61514 -992.71899
51.379902 4.2505202 -994.56299
51.745399 5.5599699 -998.53198
52.254799 7.6830702 -1005.21
52.003502 7.97644 -1006.21
34.146099 -7.6033001 -966.51099
34.7687 -7.3344998 -966.84399
35.243698 -7.0712399 -967.37701
38.870098 -5.3776202 -970.33197
39.263802 -5.2427201 -970.62799
39.9641 -4.9821401 -970.90601
40.2897 -4.7404599 -971.48297
41.202999 -4.29668 -972.34399
41.696301 -4.0843 -972.66699
41.993198 -3.86233 -973.16998
42.451801 -3.66957 -973.5
42.4604 -3.4198 -974.16699
45.049999 -1.89756 -977.52399
45.2332 -1.72157 -978
45.745098 -1.36868 -978.89697
46.065201 -1.17352 -979.34802
46.485001 -0.76007801 -980.43201
48.569 0.95037103 -984.43103
50.575401 3.8476901 -991.18402
51.095901 4.3136902 -992.31598
51.343399 5.2174101 -995.83099
51.875702 7.06638 -1001.46
52.1558 7.4555101 -1002.48
52.006599 7.7525601 -1003.49
51.371899 8.3175402 -1005.94
51.892101 8.9939604 -1007.75
51.080502 9.1162395 -1008.67
33.4221 -7.3432899 -965.98297
33.9977 -7.1033902 -966.35901
34.852501 -6.8373799 -966.53198
35.469101 -6.5475602 -966.96899
36.8591 -5.9888101 -967.74701
39.102402 -4.7680101 -970.37598
39.800301 -4.3274598 -971.45697
41.929699 -3.2783799 -973.479
43.956402 -1.98355 -976.17401
44.077301 -1.8159 -976.76398
44.497898 -1.62296 -977.09399
44.4645 -1.31519 -977.52698
45.095699 -1.22928 -977.88
45.445099 -1.05627 -978.25598
45.5443 -0.63763398 -978.96698
45.876801 -0.68469203 -979.28302
46.200401 -0.48413801 -979.74597
46.841702 -0.044631999 -980.63599
47.148499 0.67388898 -982.03101
47.460999 0.89279199 -982.53302
47.604801 1.25151 -982.862
47.860699 1.4369 -983.26398
49.686501 2.5134499 -987.12701
49.827999 3.2820001 -987.927
50.118301 3.7295799 -989.87598
50.538601 4.3091302 -991
50.972301 4.6588898 -991.672
51.179901 5.1412601 -993.17603
51.4245 5.4771299 -994.17401
51.535198 5.82022 -995.24103
51.482601 5.9809299 -996.24103
52.189301 8.1688204 -1002.93
51.830002 8.5090904 -1004.34
51.9235 8.7111797 -1004.83
36.4119 -5.5750098 -967.65698
37.321701 -5.2879601 -968.09302
37.737 -4.9254198 -969.117
38.695 -4.3136401 -970.323
39.7449 -3.8410299 -971.13
40.923199 -3.19383 -972.49402
42.225899 -2.19238 -974.37201
43.819302 -1.48844 -976.03497
43.9599 -1.32579 -976.60699
44.2159 -1.12953 -977.07501
44.618698 -0.93495899 -977.40997
44.9505 -0.72549403 -977.76099
46.375301 0.23468 -980.07898
46.7952 0.61212897 -981.09698
47.968399 2.06653 -984.112
48.872101 2.80931 -984.91901
48.524799 2.8594401 -985.76099
48.772301 3.2416999 -986.82501
49.953999 3.96418 -988.22198
50.1567 4.2835999 -989.349
50.819199 4.9697099 -991.06702
51.1315 6.1037598 -995.02502
51.5909 8.1968403 -1001.58
51.718399 8.6013498 -1002.69
51.324799 9.4157696 -1005.64
36.931 -4.77283 -968.04102
37.1772 -4.43961 -969.26703
38.389801 -3.73627 -970.37701
39.044899 -3.5831399 -970.56403
39.245701 -3.3027999 -971.18597
39.755199 -3.14996 -971.63702
40.8125 -2.69015 -972.28003
41.153198 -2.4839101 -972.742
41.3759 -2.3081501 -973.23401
41.741798 -2.0993099 -973.64899
42.303902 -1.8878599 -973.93597
43.176102 -1.26025 -975.54401
43.6772 -1.01794 -975.90002
43.789501 -0.71521002 -976.36401
44.215199 -0.64279199 -976.85199
44.529099 -0.47358701 -977.26099
44.5116 -0.31994599 -977.88501
45.277599 0.082298301 -978.58698
46.430099 0.91391802 -980.51001
47.148602 1.9003201 -981.56201
48.637001 3.2013199 -984.93701
49.455898 4.4282999 -988.41302
49.969898 4.5901499 -989.14801
51.9077 8.7805204 -1001.54
52.112202 9.2380695 -1002.69
51.225201 10.4309 -1007.47
36.596802 -4.3640499 -968.086
37.079498 -4.1406898 -968.39801
37.127899 -3.96912 -968.92603
38.246601 -3.36007 -970.112
38.6674 -3.1222799 -970.59302
39.752102 -2.64502 -971.396
40.072601 -2.45856 -971.93402
40.651299 -2.2052 -972.18402
41.121201 -1.74765 -973.18799
41.7271 -1.60189 -973.414
42.034901 -1.40433 -973.91602
42.5084 -1.16198 -974.28302
43.289799 -0.74828303 -975.23199
44.1852 -0.14205199 -976.65601
44.537201 0.043449402 -977.026
44.763 0.210068 -977.45599
45.097 0.42014301 -977.82703
45.3283 0.60322601 -978.34198
45.536301 0.79452503 -978.849
46.298801 1.22197 -979.70502
46.6091 1.77438 -980.72699
46.987499 1.80546 -981.15002
47.763302 2.4260399 -982.89697
49.723598 5.2508798 -989.23199
50.6418 5.6184902 -991.50201
51.919998 9.2605 -1000.94
51.474701 9.6144104 -1002.83
51.3745 9.7103596 -1003.3
35.832699 -4.1139898 -967.51398
36.437099 -3.8929501 -967.82397
37.813499 -3.07809 -969.39001
38.188499 -2.86042 -969.88599
38.791199 -2.6107099 -970.245
39.023899 -2.40766 -970.88
39.579102 -2.1527901 -971.27399
39.985199 -1.94442 -971.745
40.931801 -1.5212899 -972.41998
41.4925 -1.14877 -973.36298
42.008099 -0.90441102 -973.68201
42.258202 -0.70456702 -974.258
42.798801 -0.47669199 -974.62402
44.431 0.74478102 -977.461
45.167301 1.07534 -978.22302
45.5844 1.2844 -978.59802
45.7603 1.48141 -979.18298
46.426201 1.93791 -980.07202
46.2509 2.04513 -980.79602
46.935299 2.4142101 -981.51001
47.042099 2.5743201 -982.07703
47.802101 3.41589 -983.74597
48.719299 3.9570301 -985.18903
49.051498 4.3842602 -986.70898
49.439602 4.5746198 -986.953
49.409698 4.9472699 -987.547
49.674099 4.94807 -987.97198
49.993999 6.2400999 -990.57202
50.474201 6.5684299 -991.19202
50.741501 6.2621899 -991.72198
50.593899 7.0540299 -992.79401
51.620998 9.6001301 -1000.51
51.448399 9.5693102 -1001.21
51.635399 10.0168 -1001.91
51.164101 10.7301 -1005.23
35.0844 -4.0461402 -966.87799
35.750999 -3.66729 -967.22803
37.6926 -2.6122401 -969.24799
38.009899 -2.46368 -970.01099
38.519199 -2.1392801 -970.23297
39.036701 -1.90395 -970.64398
39.8382 -1.47541 -971.61102
40.627899 -1.07469 -972.42999
41.4538 -0.65963697 -973.14502
41.740398 -0.456718 -973.64301
42.263302 -0.203972 -973.98901
42.624298 -0.0118027 -974.52399
43.0425 0.21277601 -974.95203
43.178001 0.42852801 -975.59802
43.463299 0.60978699 -976.09399
43.8694 0.80279499 -976.427
44.7328 1.37726 -977.63599
45.066799 1.54773 -978.06299
45.198601 1.79187 -978.66602
46.0909 2.3715799 -980.10101
46.112999 2.50986 -980.67297
46.7463 2.72826 -980.89099
46.800999 2.84533 -981.35303
47.167801 3.08357 -981.771
47.871101 3.6702099 -983.09198
47.9897 3.7714601 -983.54602
48.763901 4.7824101 -985.96198
51.495701 9.9210501 -1000.61
51.306198 10.1409 -1001.53
51.122299 10.9125 -1004.02
35.884102 -2.9862399 -967.46503
36.444 -2.7567101 -967.81299
36.713402 -2.51424 -968.35498
37.537701 -1.95792 -969.91602
38.4347 -1.63969 -970.021
40.5891 -0.55316901 -972.22601
40.955299 -0.38394201 -972.61902
41.073898 -0.22876 -973.22498
41.770802 0.035659801 -973.401
42.210602 0.25235701 -973.81598
42.564201 0.461723 -974.32599
42.960899 0.69345099 -974.78601
43.6213 1.28922 -976.39099
43.9296 1.49336 -976.80103
44.2621 1.66142 -977.15399
44.705399 1.8614 -977.44299
45.015301 2.0518601 -977.88098
44.984299 2.2370601 -978.49298
45.812401 2.6596899 -979.37701
46.2239 2.88012 -979.76801
46.257301 3.0253899 -980.375
46.7337 3.4040699 -981.22101
46.8997 3.51373 -981.76599
47.316799 3.6786599 -981.98798
49.3983 5.7144599 -987.11401
49.7061 6.2638998 -988.79303
50.143398 6.7520099 -990.19598
50.2967 7.0534201 -991.112
50.558601 7.5465102 -992.604
50.899399 12.1207 -1005.94
50.926201 12.1658 -1006.65
29.7896 -4.8344598 -963.88
30.469 -4.62953 -964.19897
34.5364 -2.9632101 -966.63599
35.0322 -2.7121301 -967.10199
35.512001 -2.5229101 -967.45599
36.095901 -2.35623 -967.93402
36.743301 -2.02369 -968.09198
36.912601 -1.8618 -968.72699
37.3708 -1.48959 -969.83197
38.795502 -0.958305 -970.32703
39.182999 -0.73601502 -970.87598
39.693298 -0.50057203 -971.211
40.407799 -0.088943496 -972.104
40.7995 0.080207802 -972.47601
41.5886 0.52578002 -973.29303
42.091202 0.72875202 -973.66199
42.504902 0.96400499 -974.159
42.481201 1.15497 -974.77899
43.064899 1.40851 -975.21399
43.769402 1.78458 -976.05499
44.022701 1.96394 -976.48602
44.2994 2.1412699 -976.883
44.581001 2.3324699 -977.33301
44.885101 2.51092 -977.77197
45.5453 2.95789 -978.67798
45.5732 3.12481 -979.33502
45.816601 3.2963901 -979.87598
46.159199 3.7279999 -980.55798
46.7836 3.85325 -980.94702
46.995998 4.3453398 -982.01801
47.3699 4.70645 -982.901
47.456501 4.82446 -983.55402
49.790501 6.7195601 -988.5
49.794498 7.7371402 -990.01703
50.068401 7.7539401 -990.883
50.647099 8.0137701 -992.297
51.060699 9.1511402 -995.78003
51.086102 10.3335 -998.62799
51.193901 11.9373 -1003.18
51.271198 11.9773 -1003.81
51.071701 12.2464 -1004.84
50.735001 12.6621 -1006.44
45.9902 15.7641 -1019.94
28.426901 -4.8639998 -962.784
28.7211 -4.6275301 -963.43701
29.376801 -4.3727298 -963.76398
34.3489 -2.46965 -966.526
35.338902 -2.0385201 -967.31897
35.858501 -1.78956 -967.70697
37.309101 -0.96734601 -969.67902
38.258099 -0.68769097 -969.68103
38.646198 -0.46050301 -970.21198
39.094501 -0.22282401 -970.67603
39.4431 -0.0267868 -971.17102
40.0252 0.210052 -971.43298
40.284901 0.411369 -971.97198
40.5779 0.60158497 -972.40503
41.177399 0.80220002 -972.646
41.4865 1.01064 -973.15002
41.817699 1.20689 -973.64099
42.3624 1.4536901 -974.01898
42.639801 1.80225 -974.70001
42.9272 1.89987 -975.091
43.549599 2.2665 -975.96198
43.981098 2.44981 -976.28302
44.055698 2.63188 -976.87097
44.651199 2.98699 -977.72302
45.2094 3.22596 -977.96899
45.650398 3.68031 -979.04102
45.896099 3.8499 -979.54901
46.162701 4.0534101 -979.99701
46.233299 4.3318801 -980.43903
46.505199 4.2943802 -980.94
47.4687 5.3998098 -983.17798
48.4701 6.1400599 -985.74597
49.152599 6.71071 -986.86499
48.860401 7.3078599 -987.52502
49.2747 7.02458 -988.02802
48.872101 7.4970698 -988.13501
50.0952 8.5157204 -990.59802
50.309399 9.0086899 -992.104
50.541599 9.2925997 -993.565
50.769901 13.3945 -1006.48
32.7467 -2.5273199 -965.58801
33.322399 -2.38065 -965.86401
34.296799 -1.95779 -966.30603
35.322102 -1.5298899 -967.06897
36.9436 -0.82648498 -968.19897
37.346199 -0.381042 -969.375
39.040798 0.293037 -970.46301
39.308201 0.485374 -971.008
40.0238 0.88126397 -971.90002
41.641701 1.73579 -973.52802
42.130901 1.9763499 -973.94202
43.480598 2.78093 -975.776
43.668201 2.94749 -976.28998
44.046501 3.12198 -976.61902
44.656101 3.5106599 -977.47498
45.274399 3.8882899 -978.38202
45.622898 4.1167402 -978.84003
45.6409 4.3130698 -979.53497
46.0952 4.5350599 -979.82501
46.188702 4.72717 -980.39099
46.8578 5.80933 -982.02802
47.482101 5.6589398 -982.48297
47.984402 6.4983201 -984.38397
48.683498 7.00701 -986.42902
49.2906 8.0819998 -988.56702
49.4734 8.68787 -989.823
49.8801 8.9965296 -990.526
50.0914 9.3507204 -991.45599
50.250198 9.4987803 -991.93201
51.088699 11.7356 -998.87201
50.8531 11.9735 -999.914
50.734501 12.0555 -1000.36
51.029999 12.4415 -1001.28
51.163502 12.7657 -1002.21
51.199799 13.2537 -1003.71
50.559898 13.8772 -1006.42
34.795799 -1.08674 -967.20099
35.411201 -0.80941802 -967.52399
38.8475 0.77695501 -970.367
39.005402 0.95259899 -971.01801
39.610001 1.18053 -971.26501
40.434299 1.60602 -972.01001
40.7202 1.9498 -972.67401
41.155701 2.00791 -972.901
41.578602 2.20697 -973.33801
41.906799 2.4339299 -973.88
43.967201 3.6154201 -976.45099
44.3293 3.8155 -976.81
45.338001 4.63867 -978.836
45.826801 5.00491 -979.80402
45.977402 5.1960902 -980.31598
46.227402 5.3628302 -980.64001
46.353199 6.0004702 -980.97699
47.666302 7.2518301 -984.46503
48.634499 8.1458797 -986.60498
49.064602 8.33002 -987.53802
49.194599 8.7054396 -988.06201
49.731098 9.32693 -990.39398
49.980301 9.6715002 -990.74902
49.919102 9.8146095 -991.797
50.398899 10.3724 -992.76703
50.448502 10.9857 -995.22699
50.667801 11.4754 -996.70398
51.003101 12.7512 -1000.59
50.841301 13.1037 -1001.79
50.5714 14.2202 -1005.73
50.3713 14.5878 -1007.05
34.530998 -0.75405902 -966.42499
34.471901 -0.597534 -967.15601
36.100601 -0.067596398 -967.56299
36.732399 0.41311601 -968.60901
38.308998 1.0319 -969.71899
39.177898 1.62955 -971.35797
39.8582 1.87683 -971.53003
40.3521 2.09007 -971.84601
40.445099 2.36801 -972.48999
42.006199 3.2551899 -974.17603
42.624599 3.3669901 -974.58301
42.589901 3.6320801 -975.01398
43.379799 3.93856 -976.04199
43.691299 4.1002002 -976.41602
44.441601 4.4962902 -977.15802
45.3545 5.11519 -978.58002
45.815201 5.5082598 -979.56201
45.8521 6.1290102 -979.94501
46.159401 5.8264699 -980.44299
47.2472 6.60361 -982.242
48.323502 8.4492502 -986.06299
48.6954 8.6284904 -986.31299
48.772301 8.8323402 -986.92297
48.919899 8.9361601 -987.78802
49.511002 9.6887398 -989.31897
49.507801 9.9774399 -990.38702
50.003101 10.1595 -990.52197
49.747101 10.4559 -991.89502
50.8517 13.6042 -1001.66
50.862301 13.8804 -1002.55
50.584202 14.5711 -1005.07
50.7393 14.8882 -1005.92
50.093201 15.1262 -1007.31
49.398998 15.5182 -1008.9
33.2374 -0.749695 -965.39099
33.705299 -0.51589203 -965.93903
35.348301 0.150436 -967.03101
35.626999 0.36386901 -967.64502
38.6506 1.96655 -970.59003
39.443199 2.1286399 -970.914
39.8517 2.36832 -971.29901
40.382999 2.8864701 -972.375
41.561798 3.39364 -973.65302
42.441002 3.83305 -974.49902
42.846901 4.0518599 -974.90198
43.673 4.6117702 -976.20697
44.042999 5.1719999 -977.15698
45.219799 5.7753901 -979.13501
47.313801 7.3087702 -982.45697
47.744301 7.8242502 -984.078
48.897701 9.6510801 -987.84802
49.6465 10.4797 -990.02301
49.8218 10.7849 -990.99902
49.659698 10.763 -991.49103
49.9772 11.2868 -992.90997
50.209999 11.7833 -994.39301
50.680698 12.4006 -995.74103
50.762199 12.8512 -997.40503
50.303902 15.3669 -1005.95
32.911598 -0.28140301 -965.36603
33.929501 0.18679801 -966.33899
35.307598 0.705841 -967.14899
35.831501 0.939331 -967.51801
36.766998 1.35612 -968.13098
36.915699 1.58719 -968.78003
37.914398 1.98595 -969.51801
38.401402 2.23557 -969.95001
38.892899 2.43782 -970.35901
39.209702 2.62183 -970.83301
39.7374 2.87289 -971.13397
40.735001 3.4498 -972.49799
41.601101 3.9054699 -973.38501
41.772701 4.09198 -974.01099
42.056599 4.3630099 -974.33801
42.813202 4.55796 -974.69
43.033001 4.71839 -975.15399
43.3008 4.9164 -975.62097
43.606098 5.1076498 -976.01599
44.489601 5.6747398 -977.35602
44.947899 6.07269 -978.41998
45.373402 6.3129001 -978.76898
46.069901 6.8133702 -980.10797
46.736099 7.4854999 -982.20697
49.5228 10.9697 -989.89301
49.771301 10.6372 -990.47101
50.6185 12.5766 -994.54602
50.919701 13.7715 -998.81799
50.738701 14.4085 -1000.96
50.471802 15.0013 -1002.9
50.187401 15.8319 -1005.8
35.450298 1.29337 -967.33002
38.544102 2.93995 -970.354
39.217999 3.2728901 -971.20001
39.868999 3.5308101 -971.44501
40.262798 3.73522 -971.86902
41.143398 4.17314 -972.68903
41.419201 4.3768601 -973.26703
41.845001 4.6167898 -973.70398
42.163898 4.8176999 -974.23102
42.449799 5.0187898 -974.70599
43.297501 5.4243898 -975.38
44.138699 6.22189 -977.35199
44.544701 6.3545499 -977.77802
44.7463 6.5486302 -978.34003
45.1852 6.7821398 -978.67401
45.4603 7.11553 -979.76703
46.0676 7.3028998 -979.90002
46.295799 7.4846702 -980.32599
46.3923 7.6386099 -980.84497
46.313999 7.8478298 -981.44897
47.073898 8.5861998 -983.62
47.740799 9.0817699 -984.93298
48.186199 9.5749397 -986.26501
48.712002 10.4041 -987.84399
49.146198 10.6565 -989.15997
49.770901 11.945 -991.14697
50.327999 13.349 -995.58099
50.379601 13.3456 -996.19202
