# .PCD v0.7 - Point Cloud Data file format
VERSION 0.7
FIELDS x y z
SIZE 4 4 4
TYPE F F F
COUNT 1 1 1
WIDTH 1661
HEIGHT 1
VIEWPOINT 0 0 0 1 0 0 0
POINTS 1661
DATA ascii
48.726501 -57.043999 -1011.62
49.051102 -55.843899 -1013.45
49.019798 -55.374599 -1014.3
49.268002 -53.791401 -1016.75
49.310299 -53.573399 -1017.48
49.5494 -52.720699 -1018.39
49.574501 -52.219398 -1019.16
49.389801 -51.620098 -1019.96
49.473598 -51.4249 -1020.54
49.514599 -50.510399 -1022.09
49.451698 -50.0504 -1023.09
49.384499 -49.735001 -1023.36
49.0564 -48.618198 -1025.22
48.8386 -47.9795 -1026.51
48.433498 -47.378399 -1027.39
48.225899 -47.090099 -1027.89
47.433998 -46.705799 -1028.8199
46.843899 -46.152401 -1029.76
46.921001 -45.7855 -1030.33
46.0788 -45.006199 -1031.8
45.9324 -44.348801 -1032.8101
45.437 -44.2439 -1033.24
45.055 -44.028198 -1033.67
45.104599 -43.6609 -1034.21
44.387798 -42.9795 -1035.11
44.1991 -42.873901 -1035.78
43.8885 -42.016102 -1036.9301
43.197899 -42.0033 -1037.5601
42.490501 -41.317402 -1038.64
41.492401 -40.720001 -1039.89
41.460899 -40.4636 -1040.38
40.5751 -40.420101 -1040.64
40.216702 -39.935799 -1041.4399
39.483299 -39.612202 -1042.1899
38.552601 -38.855499 -1043.21
37.825699 -38.698799 -1044.1
37.1926 -38.419998 -1044.37
35.864799 -37.973801 -1045.72
35.048199 -37.6922 -1046.39
29.291401 -36.202499 -1049.84
46.223701 -61.044998 -1004.58
46.5998 -60.492699 -1005.89
47.271599 -59.341 -1007.15
48.158199 -57.824299 -1009.46
48.284199 -57.508499 -1010.36
48.732899 -56.431 -1011.67
49.049099 -55.616402 -1012.57
49.037201 -55.313301 -1013.57
49.1064 -55.116901 -1014.04
49.289398 -54.218201 -1015.08
49.432098 -53.689499 -1015.92
49.809299 -51.5481 -1019.28
49.9622 -50.630299 -1020.75
49.6409 -50.4967 -1021.38
49.6945 -49.9048 -1022
49.538502 -49.516399 -1022.63
49.3424 -48.821899 -1023.83
49.394501 -48.4823 -1024.26
48.839001 -47.850399 -1025.53
48.7407 -47.5229 -1026.08
48.517399 -47.2314 -1026.59
47.890301 -46.7341 -1027.52
47.647301 -46.492901 -1028.02
47.598301 -46.155499 -1028.26
47.384201 -45.4398 -1029.6899
46.863701 -45.285702 -1030.16
46.891499 -44.910599 -1030.73
46.629501 -44.651699 -1031.23
46.3381 -44.402901 -1031.71
45.513901 -43.706699 -1033.13
44.965599 -43.195702 -1033.89
43.794102 -41.492901 -1036.58
43.371399 -41.405201 -1037.35
42.900902 -41.2864 -1037.7
42.533401 -40.718601 -1038.36
42.362999 -40.511299 -1038.98
41.237801 -39.999599 -1040.16
40.0396 -39.187099 -1041.71
39.497101 -38.777401 -1042.46
38.684799 -38.480701 -1043.24
38.293201 -38.336201 -1043.63
37.721901 -37.885201 -1044.4301
37.1698 -37.7565 -1044.91
32.716999 -36.306599 -1048.27
45.487202 -61.686199 -1003.08
46.6619 -60.2052 -1004.84
47.6423 -58.547401 -1007.44
47.336601 -58.210201 -1008.25
48.3321 -57.175499 -1009.52
49.099201 -55.215 -1012.48
49.8339 -52.377998 -1016.88
49.746601 -52.2328 -1017.46
49.881599 -51.431999 -1018.48
50.045799 -50.986698 -1019.25
49.9515 -49.9851 -1020.63
49.835098 -49.842899 -1021.18
49.6418 -48.991001 -1022.42
49.184399 -48.782101 -1022.92
49.239799 -47.9762 -1024.15
49.016998 -47.6656 -1024.7
48.6791 -47.021198 -1025.79
48.3405 -46.4389 -1026.87
47.818699 -45.8755 -1027.92
47.938801 -45.459499 -1028.53
47.378799 -45.312199 -1028.99
47.4053 -44.925098 -1029.5601
47.240501 -44.606998 -1030.1
46.891201 -43.9688 -1031.1899
46.504002 -43.891399 -1031.86
46.3755 -43.519402 -1032.12
45.8279 -43.243 -1032.76
45.4884 -42.820099 -1033.51
44.770302 -42.0359 -1034.9301
44.566299 -41.790199 -1035.41
44.345501 -41.501301 -1035.92
43.477402 -40.830601 -1036.9399
43.276798 -40.574799 -1037.6899
41.8829 -39.8647 -1039.24
40.707901 -39.513199 -1040.4
40.970798 -38.9505 -1040.89
39.501301 -38.2565 -1042.38
37.360699 -37.2043 -1044.67
35.642601 -36.713699 -1045.99
33.650799 -36.288601 -1047.24
32.935902 -35.652302 -1047.87
30.5903 -35.217999 -1049.65
29.3025 -34.929798 -1050.3
45.057701 -61.7183 -1001.44
45.999401 -60.8479 -1003.4
47.752602 -58.049702 -1007.24
48.1912 -57.0359 -1008.55
48.270199 -56.726299 -1009.45
48.687599 -55.860901 -1010.24
49.035599 -54.6078 -1012.06
49.242199 -54.231098 -1013.09
49.631302 -53.335098 -1014.31
50.057899 -52.197102 -1016.14
50.022202 -50.578098 -1018.48
49.8484 -50.436699 -1019.03
49.690399 -49.241501 -1020.94
49.7057 -49.171902 -1021.57
48.470501 -46.554001 -1025.5601
48.361301 -46.224499 -1026.15
48.218601 -45.245602 -1027.35
47.812302 -45.0051 -1028.42
47.459702 -43.935501 -1030.03
46.6712 -44.221802 -1030.47
46.912899 -43.4576 -1031.01
46.768101 -43.158401 -1031.55
46.080299 -42.707199 -1032.4399
45.854198 -42.479301 -1032.9301
45.417099 -41.918598 -1033.89
44.3979 -40.9529 -1035.74
43.984299 -40.868099 -1036.29
43.906601 -40.465199 -1036.63
43.550201 -39.906601 -1037.6
42.490398 -39.693401 -1038.3
42.028099 -39.481701 -1039.1
41.689899 -39.084 -1039.54
41.2784 -38.849098 -1040.25
40.0354 -38.373699 -1041.41
39.530998 -37.690201 -1042.23
37.895901 -37.075298 -1043.72
37.447102 -36.604599 -1044.4399
36.8839 -36.288101 -1045.13
35.862499 -36.049198 -1045.64
34.9072 -36.1255 -1046.48
23.681101 -33.6782 -1052.74
46.964802 -59.1362 -1004.43
48.700001 -55.810398 -1009.48
49.0172 -55.100201 -1010.53
48.983601 -54.7948 -1011.51
49.564098 -53.758202 -1012.6
49.628502 -53.470901 -1013.33
50.142502 -52.174599 -1015.04
50.275799 -51.084202 -1016.83
50.153301 -50.680199 -1017.5
50.073898 -50.238602 -1018.15
49.587898 -48.621101 -1021.4
49.339901 -48.090401 -1021.8
49.1492 -47.9217 -1022.29
49.006802 -47.0369 -1023.69
48.951801 -46.901901 -1024.26
49.035801 -46.2295 -1024.9399
48.532001 -46.100899 -1025.74
48.078899 -44.674599 -1027.72
48.220699 -44.391499 -1028.27
47.881302 -43.991699 -1028.83
47.2855 -43.4907 -1030.3101
46.979099 -42.913799 -1030.92
46.928101 -42.544498 -1031.4399
46.412998 -42.403599 -1031.87
45.8591 -41.946999 -1032.8
45.603298 -41.835499 -1033.38
45.608299 -41.321899 -1033.8
45.441399 -41.041 -1034.27
44.6423 -40.296001 -1035.67
44.071602 -40.182701 -1036.0601
43.391399 -39.4744 -1037.4
43.242599 -39.186901 -1037.9
43.0825 -38.9375 -1038.25
42.5182 -38.857201 -1038.87
41.941399 -38.421101 -1039.45
41.159401 -37.7869 -1040.66
40.417702 -37.4464 -1041.41
40.162899 -37.137299 -1041.72
39.4188 -37.158001 -1042.49
38.601299 -36.672199 -1042.9399
36.6381 -35.865002 -1044.9301
35.242901 -35.466202 -1046.17
34.094799 -35.039501 -1046.54
33.563702 -34.9263 -1047.58
32.5303 -34.4501 -1048.2
31.000099 -34.128101 -1048.78
45.513901 -60.465302 -1001.48
46.456001 -59.142601 -1003.25
47.4688 -57.808601 -1004.93
48.446201 -56.538502 -1007.29
49.033901 -54.9846 -1009.54
49.723598 -53.597 -1011.76
49.833199 -53.0732 -1012.68
50.129299 -52.426102 -1013.58
50.227501 -51.713699 -1014.31
50.242199 -51.556702 -1014.81
50.288601 -50.974201 -1015.87
49.834202 -49.734001 -1017.73
49.473099 -48.126999 -1021.2
49.708099 -47.4184 -1021.73
49.199799 -47.2444 -1022.26
49.265999 -46.777199 -1022.94
49.1884 -46.3923 -1023.56
49.2822 -45.956402 -1024.22
48.791698 -45.743099 -1024.75
48.9314 -44.919998 -1026.02
48.499699 -44.721199 -1026.5
48.145901 -44.478401 -1027.01
48.267399 -44.0326 -1027.61
48.152 -43.726398 -1028.16
46.864399 -42.1367 -1031.03
46.252701 -41.573299 -1032.22
46.137001 -41.278099 -1032.71
45.385601 -40.458401 -1034.11
45.1707 -40.3395 -1034.77
44.826801 -39.766201 -1035.14
43.750198 -39.036301 -1036.96
43.225399 -38.644798 -1037.7
42.8064 -38.5886 -1037.95
42.520302 -37.9534 -1038.97
41.862499 -37.586899 -1039.76
41.373501 -37.452599 -1040.12
39.598801 -36.596298 -1042.22
36.619701 -35.274399 -1045.41
33.6105 -34.158401 -1047.4
31.560301 -33.502201 -1048.55
29.934601 -33.634399 -1049.62
49.6068 -53.577 -1010.8
50.116501 -52.840199 -1011.83
50.1469 -52.170399 -1012.85
50.363701 -51.3596 -1014.23
50.0228 -48.689701 -1018.51
49.9202 -48.188801 -1018.82
49.9935 -48.003201 -1019.7
49.6539 -47.7057 -1020.28
49.865398 -47.2323 -1020.98
49.6292 -46.907902 -1021.57
49.524899 -46.5411 -1022.17
49.4715 -46.162701 -1022.86
48.9496 -45.974899 -1023.39
49.347198 -45.385101 -1024.11
48.809898 -45.2248 -1024.72
48.997002 -44.352299 -1025.91
48.599098 -44.241199 -1026.3199
48.388699 -44.156601 -1026.85
48.2668 -43.5009 -1027.49
47.894001 -43.279701 -1027.98
47.8354 -42.953999 -1028.55
47.978298 -42.4991 -1029.17
47.648701 -42.2607 -1029.67
47.303299 -41.664101 -1030.7
46.116299 -40.567501 -1032.92
45.7813 -40.174 -1033.5699
45.598701 -39.878502 -1034.03
45.341202 -39.653 -1034.51
45.059601 -39.230099 -1034.95
44.1478 -38.447899 -1036.74
43.5779 -38.012501 -1037.2
42.694599 -37.3503 -1038.9
41.756802 -37.074001 -1039.6
39.862202 -35.918098 -1041.9399
38.5131 -35.338501 -1043.11
38.126801 -35.083199 -1043.71
35.924 -34.167301 -1045.5601
34.794102 -34.046398 -1046.3199
33.3908 -33.4492 -1047.58
32.162601 -33.063202 -1048.48
27.8435 -32.347401 -1050.79
46.9375 -57.866501 -1003.32
47.8494 -56.805901 -1004.83
49.410999 -54.8325 -1007.62
49.1269 -54.333099 -1008.69
49.921398 -53.137798 -1009.79
50.1376 -52.8097 -1010.81
50.127602 -51.4627 -1013.11
50.491798 -50.1786 -1015.12
50.024101 -49.619499 -1015.94
50.096901 -48.719501 -1017.44
49.945599 -48.327099 -1018.15
49.921799 -47.0648 -1020.22
49.848 -46.68 -1020.85
49.796799 -45.8722 -1022.13
49.6115 -45.550598 -1022.75
49.395 -45.2286 -1023.33
49.6157 -44.745499 -1024.04
49.325401 -44.4576 -1024.63
48.971699 -44.203899 -1025.15
49.087601 -43.7677 -1025.79
48.244999 -42.591702 -1027.9301
48.0373 -42.32 -1028.47
48.086899 -41.897999 -1029.05
47.671398 -41.703899 -1029.54
47.300999 -41.474602 -1030.02
47.232498 -41.1297 -1030.5699
47.058601 -40.841301 -1031.08
46.5597 -40.366901 -1032.01
46.444302 -40.084301 -1032.5
46.048199 -39.885899 -1032.9399
45.695702 -39.4188 -1033.66
45.1483 -38.8452 -1034.85
44.9147 -38.5793 -1035.3101
44.461899 -38.129501 -1035.87
43.907501 -37.668201 -1037.04
43.526901 -37.492298 -1037.4399
42.646301 -36.716301 -1038.52
40.689499 -35.8745 -1041.1899
39.973099 -35.330898 -1041.61
39.5173 -35.251099 -1042.13
37.938499 -34.7691 -1043.54
37.540798 -34.209301 -1044.27
36.576698 -33.989101 -1044.89
36.342201 -33.7985 -1045.28
35.214901 -33.6703 -1046.11
34.210098 -33.267399 -1046.73
31.999001 -32.517101 -1048.01
48.791599 -55.088902 -1006.43
49.4725 -54.177299 -1007.74
49.8209 -52.309601 -1010.57
50.308201 -51.729801 -1011.41
50.3195 -48.928799 -1015.79
50.440601 -48.465099 -1016.64
49.937698 -48.2033 -1017.06
50.0984 -47.847 -1018.11
49.9916 -46.930099 -1019.42
49.9249 -46.553001 -1020.09
49.938499 -46.066399 -1020.75
49.918301 -45.688999 -1021.39
49.648399 -45.414299 -1021.95
49.564499 -45.016102 -1022.61
49.738602 -44.555801 -1023.3
49.5327 -44.211102 -1023.9
49.148399 -43.594398 -1025.0699
49.075298 -43.216301 -1025.63
48.809898 -42.959599 -1026.17
48.5872 -42.774101 -1026.92
48.494301 -41.969299 -1027.85
48.044102 -41.406101 -1028.91
47.584599 -40.845501 -1029.9301
47.27 -40.420601 -1030.28
47.137501 -40.270901 -1030.95
47.045799 -39.972301 -1031.46
46.520802 -39.4869 -1032.39
46.307999 -39.367901 -1033.1
45.947102 -39.0182 -1033.33
45.093899 -38.3344 -1034.51
44.855499 -38.228401 -1035.1899
44.623001 -37.8228 -1035.59
43.353901 -36.678902 -1037.79
41.7896 -35.997398 -1039.35
41.118801 -35.456001 -1040.05
40.346699 -35.001099 -1041.26
39.666901 -34.655399 -1042.02
38.264599 -34.144501 -1043.26
37.669102 -33.610401 -1043.66
35.767601 -33.0116 -1045.9301
33.5112 -32.321201 -1047.3199
49.8102 -52.937698 -1008.62
49.685001 -52.682201 -1009.52
49.609699 -51.997898 -1010.23
50.045502 -50.513599 -1012.32
49.767799 -50.352299 -1013.23
50.402802 -49.373001 -1014.2
50.3731 -48.906898 -1014.97
50.1856 -48.519001 -1015.72
50.4683 -47.4603 -1017.28
50.165501 -46.315498 -1019.36
50.2355 -45.873501 -1020.05
49.930599 -45.293201 -1021.33
50.099998 -44.707199 -1021.95
48.6241 -42.136398 -1026.58
48.479698 -41.838902 -1027.15
48.470001 -41.460602 -1027.71
48.437901 -41.082901 -1028.27
48.071999 -40.487301 -1029.37
47.490601 -39.604099 -1030.9301
47.219799 -39.392502 -1031.39
46.9039 -39.161301 -1031.84
46.410599 -38.680698 -1032.75
46.019501 -38.476002 -1033.21
45.5937 -38.303902 -1033.62
45.128399 -37.459801 -1035.05
44.557598 -36.853901 -1036.12
43.948399 -36.635799 -1036.76
43.707802 -36.166801 -1037.05
43.180901 -35.9048 -1038.16
42.1343 -35.334 -1039.28
37.5536 -32.951 -1044.27
35.727798 -32.419899 -1045.67
31.748699 -31.3706 -1048.36
29.338499 -30.6954 -1050.03
45.044498 -59.299198 -998.49103
46.407799 -57.619801 -1000.48
47.297901 -56.744999 -1002.42
48.812302 -55.1227 -1004.25
48.949001 -54.701599 -1005.39
49.3904 -53.723202 -1006.46
49.513802 -53.270599 -1007.65
49.8372 -52.4324 -1008.31
50.011501 -50.2355 -1011.69
49.965 -49.922901 -1012.42
49.878399 -49.4995 -1013.16
50.271801 -48.239601 -1014.81
50.424599 -47.212799 -1016.21
50.501499 -46.889702 -1017.23
49.945099 -46.729 -1017.78
50.223801 -45.782398 -1019.23
50.107101 -44.580502 -1021.17
50.025501 -43.497398 -1022.99
49.398602 -42.6399 -1024.36
49.3606 -42.468201 -1024.83
49.067299 -41.7071 -1025.9
48.7686 -41.6399 -1026.42
48.760399 -41.191898 -1027.0601
48.771198 -40.799999 -1027.63
48.2202 -40.6744 -1028.4399
48.2617 -40.237701 -1028.76
48.208 -39.8885 -1029.35
48.046101 -39.713001 -1030.14
47.660599 -39.364399 -1030.35
47.166698 -38.595901 -1031.47
46.7509 -38.530102 -1032.1
46.3657 -37.788502 -1033.1
45.7244 -37.4342 -1034.04
45.232498 -36.9156 -1034.96
44.9501 -36.929501 -1035.4399
44.355598 -36.3521 -1035.72
43.150101 -35.228001 -1038.7
42.646702 -34.687698 -1038.98
34.874599 -31.6765 -1046.17
33.289501 -31.0564 -1047.55
30.8701 -30.642799 -1049.24
47.0289 -56.57 -1001.11
47.827801 -55.905201 -1002.59
48.6227 -54.560398 -1004.17
49.247501 -53.2281 -1006.03
49.395401 -52.8689 -1007.01
49.972 -51.597198 -1008.83
50.081402 -50.8512 -1009.77
49.846298 -49.8498 -1011.45
50.2276 -49.304699 -1012.34
50.175098 -48.884399 -1013.12
50.515499 -47.8204 -1014.73
50.812599 -47.2103 -1015.61
50.5392 -46.854301 -1016.33
50.511799 -46.420898 -1017.08
50.318802 -46.068802 -1017.76
50.258301 -45.667099 -1018.42
50.179401 -45.239601 -1019.11
50.301399 -44.803799 -1019.8
50.565601 -44.260399 -1020.5
50.001999 -44.110401 -1021.03
50.283401 -43.578602 -1021.78
50.2668 -43.148102 -1022.43
49.849899 -42.928902 -1022.97
49.653702 -42.591702 -1023.56
49.601898 -41.8587 -1024.75
49.357899 -41.5396 -1025.33
48.629299 -40.6973 -1026.92
48.9491 -40.210098 -1027.6
48.6553 -39.944801 -1028.1801
48.527802 -39.524601 -1028.64
48.482101 -39.255199 -1029.3101
47.949799 -39.1185 -1029.75
47.799 -38.752201 -1030.27
47.606098 -38.516602 -1030.78
46.576698 -37.578899 -1032.5
46.1357 -37.342201 -1032.73
46.058998 -37.094898 -1033.45
44.250198 -35.088699 -1037.15
44.0513 -34.831299 -1037.63
41.947899 -33.709999 -1040.1
41.721699 -33.334099 -1040.62
41.019798 -33.2649 -1041.39
40.5872 -33.011902 -1041.58
38.323399 -31.9543 -1043.42
34.401402 -30.7486 -1046.7
33.577801 -30.4135 -1047.16
32.268398 -30.5028 -1048.16
48.308201 -55.0443 -1002.83
48.601601 -54.028 -1003.97
49.061901 -52.7882 -1005.89
49.430199 -52.497299 -1006.44
49.763699 -51.0009 -1008.61
49.7383 -50.496899 -1009.43
50.215801 -49.276299 -1011.39
50.1539 -48.3451 -1012.98
50.566299 -47.676701 -1013.87
50.824501 -46.181999 -1016.3
50.583099 -45.4053 -1017.69
50.494202 -44.606998 -1018.52
50.4869 -44.5765 -1019.07
50.516602 -43.296101 -1021.16
50.176899 -42.6436 -1022.35
50.196098 -42.241901 -1022.92
50.062099 -41.864201 -1023.53
49.983002 -41.507801 -1024.13
49.4464 -41.374298 -1024.63
49.354401 -41.051701 -1025.2
49.2383 -40.699299 -1025.45
48.865799 -40.4431 -1026.25
48.879002 -40.072701 -1026.9
49.140499 -39.602798 -1027.53
48.849701 -39.333302 -1028.08
48.790401 -38.970699 -1028.49
48.330601 -38.781101 -1029.14
48.283901 -38.416698 -1029.6801
47.815102 -38.2728 -1030.13
47.527401 -38.027302 -1030.6
47.2948 -37.780102 -1031.03
46.7817 -37.4786 -1031.51
46.878101 -37.2561 -1031.97
46.646999 -36.618301 -1033.03
45.735802 -35.559601 -1034.8199
45.370098 -35.409401 -1035.39
45.1548 -35.3372 -1036.12
44.983101 -34.7146 -1036.38
44.267601 -34.505798 -1037.14
44.1315 -34.112801 -1037.27
43.404701 -33.847599 -1038.4399
42.834499 -33.43 -1039.27
41.508999 -32.9403 -1040.23
40.9156 -32.307598 -1041.58
40.417801 -31.933901 -1042.34
47.893799 -54.935299 -1001.69
48.156799 -54.563 -1002.59
48.652199 -53.496899 -1003.87
49.076801 -51.543201 -1006.53
49.915501 -50.327 -1008.51
49.657299 -49.919399 -1009.38
50.236301 -49.197201 -1010.4
50.400902 -48.558899 -1011.62
50.680099 -48.0317 -1012.19
51.0466 -47.3414 -1013.11
50.403801 -47.096901 -1013.9
51.133499 -46.297298 -1015
51.231602 -45.820599 -1015.8
50.952801 -45.482601 -1016.41
50.987499 -45.027199 -1017.11
51.000198 -44.5933 -1017.8
51.2411 -43.583099 -1019.32
50.799702 -43.367001 -1019.94
50.8792 -42.496601 -1021.31
50.7939 -41.825001 -1022.32
50.203899 -41.213902 -1023.56
49.751301 -40.871601 -1024.26
49.682701 -40.340401 -1025.14
49.249901 -40.1306 -1025.61
49.392601 -39.713402 -1026.24
49.256599 -39.303398 -1026.76
48.916 -39.271801 -1027.3
48.458401 -38.522301 -1028.2
48.2006 -37.9417 -1029.5
48.080601 -37.5783 -1029.84
47.692501 -37.5574 -1030.41
47.5429 -36.386799 -1032.12
46.390598 -35.581799 -1034.09
46.0266 -35.2715 -1034.42
45.187901 -34.5695 -1035.8101
45.047798 -34.287601 -1036.25
44.663898 -34.0821 -1036.64
44.425301 -33.5336 -1037.01
43.7472 -33.4921 -1037.9301
43.552399 -33.400299 -1038.39
43.269798 -32.820702 -1038.89
42.088799 -32.226299 -1040.34
41.868 -32.0093 -1040.75
41.0499 -31.702 -1041.47
40.6908 -31.538 -1041.84
39.9258 -31.195299 -1042.39
39.1782 -30.917 -1043.26
37.137699 -30.043699 -1044.96
33.690701 -29.3631 -1047.14
48.053902 -54.222301 -1002.02
47.861599 -53.5588 -1002.75
49.0009 -51.831902 -1005.12
49.5261 -51.103199 -1006.35
49.670502 -50.460999 -1007.39
49.855 -49.6479 -1008.52
50.020401 -49.274502 -1009.55
51.475201 -46.0028 -1014.32
51.537201 -45.5079 -1015.15
51.468899 -45.062401 -1015.9
51.4356 -44.214802 -1017.29
51.4105 -43.797901 -1018.28
51.7141 -43.246399 -1018.77
51.203602 -43.0168 -1019.06
51.073101 -42.263199 -1020.66
50.773602 -41.2654 -1022.22
50.304901 -40.2575 -1024.0601
49.4646 -39.1534 -1026.08
49.2952 -38.862099 -1026.63
49.032902 -38.561501 -1027.15
48.696499 -37.9711 -1028.01
48.320301 -36.979599 -1029.96
48.381199 -36.566898 -1030.58
47.760899 -36.447899 -1031.01
47.803299 -35.723701 -1032.14
47.384701 -35.5373 -1032.6
47.217098 -35.0084 -1033.1
46.019001 -34.374901 -1034.87
45.486599 -34.2407 -1035.38
45.164902 -33.721901 -1036.14
45.177898 -33.446098 -1036.45
44.417999 -33.023701 -1037.45
43.837601 -32.6124 -1038.28
43.022598 -31.951099 -1039.48
41.319099 -31.386299 -1040.9399
40.964699 -31.044399 -1041.8101
40.249298 -30.5516 -1042.14
39.0602 -30.4599 -1043.71
34.993698 -28.983601 -1046.46
33.8456 -28.7827 -1047.02
33.1021 -28.4949 -1047.9
47.1371 -54.747299 -999.43201
47.5173 -54.352699 -1000.43
47.857201 -53.445 -1001.39
47.749901 -53.045101 -1002.48
49.160702 -51.327599 -1005.43
50.1082 -49.012402 -1008.33
50.951199 -46.628201 -1012.47
51.702599 -45.791901 -1013.54
51.577099 -45.529301 -1014.32
51.7924 -44.772499 -1015.17
51.431 -44.071499 -1016.52
51.566299 -43.531898 -1017.27
51.595299 -43.102798 -1017.98
51.446899 -42.3279 -1019.34
51.2001 -42.023701 -1019.92
51.241798 -41.651699 -1020.51
51.006901 -41.527901 -1020.85
50.828899 -41.043201 -1021.51
50.728901 -40.719799 -1022.16
50.666199 -40.371201 -1022.8
50.536098 -39.7561 -1023.9
50.224098 -39.7038 -1024.53
49.164398 -38.374901 -1026.4399
48.908001 -37.6987 -1027.55
48.574001 -37.049099 -1028.6801
48.2276 -36.991901 -1029.53
48.264999 -35.943199 -1030.95
48.037399 -35.3055 -1031.25
47.304298 -35.371201 -1031.75
47.206902 -35.056301 -1032.4
47.300598 -34.6511 -1032.95
47.122799 -34.313202 -1033.55
46.556 -34.2855 -1033.83
46.340599 -33.706799 -1034.8
45.953701 -33.605099 -1035.26
45.658401 -33.291 -1035.62
44.799702 -32.6642 -1036.87
44.359699 -32.437901 -1037.28
43.310699 -31.938299 -1038.48
42.735001 -31.1143 -1039.7
41.891102 -31.186501 -1040.37
41.4067 -30.8002 -1040.78
41.0592 -30.5326 -1041.5601
39.299 -29.8116 -1043.38
38.591599 -29.2826 -1043.89
35.2626 -28.5315 -1046.01
33.7598 -28.0611 -1046.73
32.509499 -27.556999 -1048.3101
47.677799 -53.017399 -1001.2
49.317699 -50.239601 -1004.99
49.685699 -49.8456 -1006.01
49.937698 -49.357101 -1007.38
50.360001 -48.483601 -1008.31
50.298 -48.089199 -1009.12
51.030399 -46.853298 -1010.4
51.427601 -46.369301 -1011.69
51.459801 -45.792702 -1012.62
51.588001 -45.248699 -1013.43
51.777199 -44.258099 -1015.09
51.5494 -42.929901 -1017.16
51.604698 -42.5676 -1017.88
51.523701 -41.776299 -1019.17
51.018799 -41.228001 -1020.17
51.084301 -41.008499 -1020.76
50.728298 -40.6078 -1021.34
50.845001 -39.726101 -1022.66
50.6726 -39.437698 -1023.27
50.382999 -39.2201 -1023.77
50.1721 -38.7883 -1024.25
49.761101 -38.422699 -1025.26
49.127602 -38.211601 -1025.71
49.2421 -37.7943 -1026.33
49.368301 -37.4692 -1026.64
48.928699 -37.154202 -1027.4
49.180401 -36.655701 -1028.0699
48.9692 -36.342701 -1028.75
48.4062 -36.386299 -1029.27
48.7673 -35.686001 -1029.89
48.338001 -35.454899 -1030.4
48.0354 -34.892601 -1031.38
47.687099 -34.7654 -1031.6899
47.088501 -33.866798 -1033.28
46.5527 -33.803001 -1033.92
46.505901 -33.431499 -1034.17
46.004601 -32.947201 -1035.08
45.4893 -32.459 -1035.91
44.159401 -31.876499 -1037.76
43.270599 -31.2027 -1038.9301
42.718899 -30.6509 -1039.41
42.248699 -30.5616 -1039.9301
41.413502 -30.3041 -1040.63
40.945702 -29.8557 -1041.4301
40.609699 -29.672199 -1041.8101
39.967499 -29.2873 -1042.3101
39.705101 -29.121901 -1043.14
37.660099 -28.7733 -1044.4399
35.382401 -27.9604 -1045.87
32.107601 -27.093201 -1047.98
44.918598 -56.487499 -995.44098
47.0877 -53.624901 -999.737
47.706799 -52.493301 -1000.99
48.313 -51.815701 -1002.74
49.294998 -50.667099 -1003.84
49.8279 -49.264198 -1006.09
50.3354 -47.652199 -1008.35
51.234299 -46.350101 -1010.73
51.4175 -45.219799 -1012.53
51.9147 -43.255402 -1015.59
51.8885 -42.566799 -1016.12
51.767601 -42.434601 -1016.96
51.675499 -41.246899 -1018.92
51.210499 -41.032799 -1019.38
50.956799 -40.731499 -1019.93
51.050701 -39.905102 -1021.27
51.190601 -39.442402 -1021.98
50.221901 -37.943401 -1024.65
49.763901 -37.809601 -1025.13
49.502701 -37.525002 -1025.63
49.436901 -37.187302 -1026.21
49.128201 -36.852699 -1026.9399
49.1866 -35.7332 -1028.62
48.509602 -35.8088 -1029.02
48.641998 -34.848801 -1030.04
47.977402 -34.922298 -1030.47
47.097198 -33.5317 -1032.47
47.184502 -33.330002 -1033.1
45.743301 -32.989399 -1034.13
45.977798 -32.423599 -1034.91
45.747299 -32.126301 -1035.24
45.419601 -32.0518 -1035.8
44.775002 -31.345501 -1036.88
44.1642 -31.354401 -1037.5
42.5201 -29.948 -1039.83
41.396198 -29.240499 -1041.01
40.852901 -29.056801 -1041.7
39.7047 -28.613899 -1042.75
35.308701 -27.3598 -1045.58
32.624001 -26.5618 -1047.79
31.4335 -26.2253 -1048.71
30.2339 -26.107201 -1049.27
45.495899 -55.313599 -996.01398
46.959202 -53.177101 -999.505
47.8489 -51.2957 -1002.24
49.9114 -48.478298 -1005.99
51.908501 -45.225498 -1010.82
51.546902 -45.054001 -1011.66
51.790699 -44.542 -1012.47
52.053299 -43.643902 -1014.23
51.845901 -42.0131 -1016.48
51.752399 -41.544498 -1017.35
51.595501 -41.1366 -1017.91
51.512001 -41.029701 -1018.47
51.305801 -40.033298 -1019.91
51.297199 -39.674702 -1020.56
50.8433 -39.466099 -1021.14
51.153099 -38.943298 -1021.85
50.444801 -38.080299 -1023.37
50.344501 -37.257198 -1024.26
49.862099 -37.260502 -1024.74
49.787201 -36.904999 -1025.55
49.652599 -36.561901 -1026.12
49.501301 -36.217201 -1026.74
49.488998 -35.845699 -1027.42
49.3074 -35.5658 -1027.96
49.096699 -35.251701 -1028.45
48.703499 -34.359001 -1029.96
47.730499 -33.6875 -1031.3101
46.915298 -32.965 -1032.85
46.348801 -32.538799 -1033.67
45.811298 -32.360901 -1034.12
45.837502 -31.661699 -1035.22
45.772301 -31.4314 -1035.64
45.312401 -31.3755 -1036.24
44.9683 -31.023701 -1036.47
44.280998 -30.653299 -1037.28
44.224998 -30.3531 -1037.75
43.3918 -30.105 -1038.38
42.915199 -29.8916 -1038.87
42.158001 -29.2759 -1040.05
40.851002 -28.725 -1041.4399
40.667702 -27.9744 -1041.95
39.073502 -28.258801 -1042.47
44.784698 -55.9366 -994.51801
48.490799 -50.659401 -1002.29
49.166401 -49.432999 -1003.5
51.925999 -44.4515 -1011.54
52.019001 -43.941399 -1012.39
51.570599 -43.277699 -1013.57
51.7103 -42.806999 -1014.27
51.8494 -42.296799 -1015.05
51.660599 -41.941502 -1015.7
51.5252 -41.1157 -1017.11
51.3801 -40.704399 -1017.61
51.489899 -39.535 -1019.64
51.4566 -38.386398 -1021.68
50.479698 -37.9617 -1022.6
50.507099 -37.571499 -1023.23
50.293201 -37.296902 -1023.77
49.986401 -36.672699 -1024.91
49.784698 -36.354198 -1025.46
49.790699 -35.582401 -1026.77
48.982101 -34.602901 -1028.66
48.463501 -34.592701 -1029.1899
48.555099 -33.930698 -1029.76
47.964802 -33.4636 -1030.7
47.703602 -33.247898 -1031.15
46.9259 -33.331001 -1031.64
47.1744 -32.554298 -1032.22
46.5755 -31.5867 -1034.09
45.940201 -31.470301 -1034.58
45.355999 -30.707701 -1035.92
45.066002 -30.5128 -1036.33
44.1367 -30.254801 -1036.9399
43.556499 -29.4744 -1038.2
42.740101 -28.857901 -1039.5699
42.126701 -28.8146 -1039.89
40.000702 -27.7911 -1042.0699
39.867901 -27.5763 -1042.41
38.482101 -27.27 -1043.24
37.4734 -27.2139 -1043.89
46.366501 -52.791401 -997.30103
48.7229 -49.990799 -1002.1
49.2719 -48.850399 -1003.29
50.007301 -48.033901 -1004.87
50.735001 -47.3918 -1006.68
51.664902 -45.398899 -1008.66
51.990799 -44.826401 -1009.78
51.859901 -44.040298 -1011.36
51.881802 -42.148399 -1014.31
52.0247 -39.935799 -1017.83
51.5597 -39.726101 -1018.39
51.5401 -39.335999 -1019.07
51.245701 -39.057999 -1019.32
50.777802 -37.682999 -1021.89
50.757401 -37.0812 -1022.25
50.373001 -37.118698 -1023.07
50.197601 -36.820301 -1023.63
50.224201 -35.651501 -1025.54
50.101501 -35.316002 -1026.12
49.722301 -35.105499 -1026.63
49.442299 -34.815399 -1027.14
49.509499 -34.422798 -1027.67
49.012299 -33.8797 -1028.6801
48.544399 -33.426102 -1029.66
48.253101 -32.830002 -1030.59
47.524799 -32.758499 -1030.9399
46.818802 -31.9727 -1032.61
46.297199 -31.2054 -1033.84
45.638401 -30.4877 -1035.29
44.980999 -29.766399 -1036.59
43.4767 -29.004101 -1038.21
41.8741 -28.155399 -1040.0601
39.957001 -27.0865 -1042.17
38.182301 -26.555 -1043.71
37.229698 -26.1779 -1044.3
35.891399 -26.0291 -1045.02
35.076801 -25.8106 -1045.73
32.371201 -24.886299 -1047.66
42.826401 -56.9244 -991.27399
44.410198 -54.178799 -994.48602
51.262901 -46.197399 -1006.76
51.564098 -44.9622 -1008.47
51.595299 -42.681801 -1012.47
51.913898 -41.902699 -1013.03
52.209801 -40.681599 -1015.6
51.980202 -40.289501 -1016.29
51.702202 -39.992901 -1016.95
51.9655 -39.438702 -1017.74
51.905499 -39.092201 -1018.38
51.385899 -38.155701 -1020.1
51.130199 -37.8582 -1020.6
51.115799 -37.464802 -1021.2
50.9645 -37.162701 -1021.8
50.637001 -36.489498 -1022.98
50.690899 -36.117001 -1023.58
50.219601 -35.5728 -1024.05
50.031399 -35.1791 -1025.4
49.893799 -34.8573 -1025.9399
50.089901 -34.336399 -1026.63
49.539799 -34.257 -1027.02
49.485802 -33.9207 -1027.5699
49.205101 -33.6954 -1028.0601
49.3409 -33.275101 -1028.64
48.429699 -32.918201 -1029.47
48.019199 -32.1908 -1030.74
47.7015 -31.872801 -1031.38
47.393799 -31.6675 -1031.85
47.005001 -31.402201 -1032.37
46.918999 -31.1348 -1032.8
46.2817 -30.719999 -1033.67
46.304901 -30.3873 -1034.1899
46.003799 -30.2185 -1034.62
43.423698 -28.2724 -1038.52
42.952099 -28.0877 -1038.86
42.472801 -27.5441 -1039.72
39.1842 -26.749201 -1042.08
38.937302 -26.162901 -1042.7
37.2458 -25.676701 -1043.96
35.444801 -25.138901 -1045.55
33.312302 -24.534 -1047.03
30.694099 -24.188299 -1048.26
50.9664 -46.292 -1005.6
51.2117 -45.184799 -1007.38
51.2094 -44.611099 -1008.29
51.972698 -42.080002 -1012.5
51.8722 -41.2714 -1013.31
52.060699 -41.079102 -1013.94
51.834702 -40.741001 -1014.63
52.205002 -38.861698 -1017.63
51.8797 -38.563999 -1018.23
51.516899 -38.330898 -1018.68
51.3755 -37.6558 -1019.82
51.259499 -37.311401 -1020.42
51.1446 -36.944599 -1021.05
50.644001 -35.973499 -1022.81
50.3932 -35.277802 -1024.05
50.427898 -34.899399 -1024.7
50.035599 -34.6759 -1025.21
50.180401 -33.888 -1026.41
49.438599 -33.408401 -1027.4
49.409599 -33.059601 -1027.97
48.7164 -32.4832 -1028.9399
48.453201 -32.034302 -1029.87
48.021 -31.674101 -1030.47
47.5453 -30.7309 -1032.27
47.1134 -30.6017 -1032.8199
46.4398 -29.848499 -1033.87
45.730499 -29.8654 -1034.4301
45.039001 -29.1751 -1035.36
44.2299 -28.5203 -1036.42
41.435501 -27.1287 -1040.26
40.692402 -26.705299 -1040.72
40.586899 -26.426399 -1041.1
40.348598 -26.5972 -1041.4399
39.563801 -26.216801 -1041.77
39.055199 -25.8454 -1042.45
33.653301 -23.9993 -1046.58
33.0485 -23.8953 -1047.5601
47.152901 -50.640202 -997.44501
47.986401 -49.7995 -999.38702
51.305801 -46.173901 -1004.57
51.2934 -45.911201 -1005.55
51.327599 -45.1819 -1006.36
51.451199 -44.341301 -1007.18
51.715801 -43.169899 -1009.02
51.5256 -42.9655 -1009.91
51.956799 -42.3503 -1010.74
51.9813 -41.676102 -1011.72
52.030602 -41.422901 -1012.31
52.188499 -40.500198 -1013.82
51.8755 -39.702499 -1015.23
52.353298 -39.0788 -1015.96
52.119301 -38.331699 -1017.45
51.781601 -38.062199 -1018.04
51.470299 -37.462799 -1019.09
51.546902 -36.918598 -1019.86
51.1954 -36.383801 -1020.89
51.1674 -36.0135 -1021.54
50.7216 -35.388401 -1022.68
50.6059 -35.089401 -1023.26
50.483299 -34.6064 -1023.71
50.194401 -34.448101 -1024.41
50.259701 -33.544399 -1025.74
49.787201 -32.763802 -1027.3
49.640301 -32.546501 -1027.89
49.158001 -32.518799 -1028.38
48.950901 -32.019798 -1028.78
48.572899 -31.679001 -1029.91
47.501499 -30.889299 -1031.4399
47.467499 -30.1311 -1031.88
46.978401 -29.861099 -1033.26
46.599201 -29.238701 -1033.84
46.0369 -29.205999 -1034.24
45.1838 -29.3319 -1034.71
45.331402 -28.7411 -1035.09
45.0303 -28.229601 -1035.97
44.677898 -27.875 -1036.29
43.379501 -27.8528 -1037.5601
42.515099 -26.9942 -1038.6801
41.7047 -26.681999 -1039.41
41.604099 -26.4161 -1039.83
41.154099 -26.338499 -1039.78
40.691601 -25.552401 -1041.04
39.809601 -25.593399 -1041.66
36.976002 -24.354 -1044.33
35.623699 -23.979099 -1044.92
31.663799 -22.999599 -1047.88
30.0734 -22.850401 -1048.59
47.553001 -49.8708 -997.70203
50.426899 -46.488499 -1002.92
50.924 -45.316898 -1004.91
50.993301 -44.953201 -1005.68
51.508999 -44.003899 -1006.98
51.8783 -42.8195 -1008.88
51.7575 -42.346298 -1009.72
52.332001 -41.695099 -1010.67
52.062401 -41.307301 -1011.42
52.1007 -40.920101 -1012
52.245399 -39.93 -1013.7
52.255001 -39.032299 -1015.22
52.478901 -38.4813 -1016.01
52.253201 -38.146801 -1016.67
52.108299 -37.798599 -1017.28
51.545502 -36.903801 -1018.93
51.3792 -36.5765 -1019.51
51.294201 -36.234001 -1020.11
51.460999 -35.747398 -1020.81
51.250301 -35.474499 -1021.38
50.844799 -34.8405 -1022.55
50.573299 -34.543499 -1023.11
50.644798 -34.123699 -1023.78
50.432499 -33.810799 -1024.5601
50.331699 -33.2211 -1025.37
49.963699 -32.9604 -1025.88
49.918201 -32.193901 -1027.16
49.524799 -31.972099 -1027.65
49.242298 -31.246201 -1028.53
49.044399 -31.1166 -1029.1
48.781399 -31.042999 -1029.6801
48.247398 -30.2661 -1030.6
48.039501 -30.1555 -1031.03
47.616798 -29.614599 -1031.98
46.4916 -29.0432 -1033.23
45.204498 -28.144699 -1034.87
44.997299 -27.739901 -1035.79
43.4753 -26.711901 -1037.83
41.723801 -26.1586 -1039.24
41.062302 -25.5306 -1040.41
39.702499 -25.109301 -1041.49
34.8008 -23.4128 -1045.41
29.0464 -21.912901 -1049.28
47.8927 -49.132599 -998.073
48.232399 -48.744801 -999.03601
51.017799 -44.289398 -1005.94
51.345001 -43.343399 -1006.71
51.650501 -42.947899 -1007.76
52.180302 -41.3671 -1010.52
52.245602 -40.462399 -1011.27
52.3456 -40.2019 -1012.17
52.262501 -39.772701 -1012.88
52.234501 -39.178699 -1013.64
52.325901 -38.825699 -1014.68
52.114899 -38.091301 -1015.78
52.1684 -37.658298 -1016.5
52.173599 -37.106701 -1016.93
52.2687 -36.810398 -1017.8
51.979099 -36.815701 -1018
51.792301 -36.264099 -1018.83
51.389301 -36.049099 -1019.37
51.432301 -35.250198 -1020.64
50.890598 -35.045898 -1021.16
50.974201 -34.4977 -1021.85
50.866901 -34.333599 -1022.45
50.854 -33.9268 -1023
50.3862 -33.332699 -1024.1
50.112999 -32.739799 -1025.14
49.699902 -32.493198 -1025.84
49.7281 -31.7633 -1026.92
49.524799 -31.4505 -1027.5
49.373798 -31.104799 -1028.02
49.393902 -30.773001 -1028.5699
49.1731 -30.5219 -1028.86
48.758499 -30.349899 -1029.48
48.451302 -30.1411 -1029.9301
48.395599 -29.8274 -1030.4301
47.9366 -29.658199 -1030.98
47.302101 -28.871099 -1032.29
46.906799 -28.8423 -1032.7
46.942402 -28.3347 -1033.21
45.946999 -28.058001 -1034.3101
45.442699 -27.602501 -1034.72
44.805599 -27.591801 -1035.12
44.202801 -26.8521 -1036.45
43.733002 -26.408501 -1037
42.245701 -25.6532 -1038.91
41.923901 -25.561199 -1039.65
41.150501 -25.078699 -1039.99
39.597401 -24.341101 -1041.73
38.022598 -23.7458 -1043.22
36.468601 -23.2026 -1044.36
33.733398 -22.296101 -1046.47
32.2286 -21.9102 -1047.13
48.385799 -47.687099 -999.11499
50.122898 -45.674702 -1002.4
50.7523 -45.028301 -1003.67
51.198101 -43.695999 -1005.77
51.516602 -42.352798 -1007.68
52.041801 -40.9739 -1009.74
52.257999 -40.589001 -1010.38
52.477501 -39.839298 -1011.1
52.418098 -39.6064 -1012.02
52.569099 -39.137501 -1012.82
52.364101 -38.609501 -1013.41
52.331699 -38.296299 -1014.44
52.501099 -38.066399 -1014.99
52.530201 -37.2813 -1015.86
52.421001 -37.036201 -1016.35
52.351799 -36.669201 -1017.01
52.184799 -36.368698 -1017.57
51.5275 -35.451599 -1019.23
51.393799 -35.1273 -1019.83
51.514801 -34.661098 -1020.51
51.122299 -33.929298 -1021.66
51.2369 -33.616501 -1022.33
50.789101 -32.850899 -1023.65
50.494301 -32.782101 -1023.99
50.379601 -31.874701 -1025.1
49.966702 -31.9217 -1025.53
49.443401 -30.995199 -1027.28
48.999901 -29.8414 -1029.2
48.080799 -29.090799 -1030.73
47.926601 -28.7925 -1031.23
47.655899 -28.576099 -1031.7
47.027 -28.129999 -1032.58
46.588699 -27.822701 -1032.89
46.426498 -27.717699 -1033.45
45.9814 -27.1486 -1033.96
45.7962 -27.038401 -1034.63
45.124802 -26.9424 -1035.03
44.624001 -26.3479 -1036.34
44.022099 -25.8034 -1036.8199
43.644501 -25.6507 -1037.48
42.770199 -25.229401 -1037.97
42.126499 -24.6696 -1039.47
41.498199 -24.391399 -1039.76
39.642799 -23.8055 -1041.59
33.406601 -21.815599 -1046.29
32.8577 -21.2906 -1047
29.5228 -20.9869 -1048.6801
49.834 -46.067001 -1001.13
51.823898 -41.923698 -1006.81
51.810101 -41.6991 -1007.61
52.126598 -41.075401 -1008.56
51.993 -40.618599 -1009.02
52.758099 -38.965599 -1011.96
52.436798 -38.631802 -1012.63
52.389301 -38.2183 -1013.35
52.290798 -37.806801 -1014.05
52.605099 -37.2953 -1014.82
52.481098 -36.859299 -1015.64
52.489601 -36.065498 -1016.68
51.972 -35.148399 -1018.55
51.608501 -34.8927 -1019.09
51.692902 -34.2701 -1019.97
51.477901 -34.191502 -1020.35
51.158501 -33.527802 -1021.53
51.242001 -33.104198 -1022.17
51.044998 -32.398201 -1023.4
50.244801 -31.6397 -1024.87
49.348999 -30.4053 -1026.9399
49.221001 -29.805 -1028.21
49.1152 -29.493999 -1028.73
48.509998 -29.2964 -1029.5
48.358299 -28.7766 -1030.11
47.942001 -28.276199 -1031.09
47.4286 -27.9035 -1031.59
47.0956 -27.6035 -1032.42
46.645901 -27.128201 -1033.41
46.1222 -26.4818 -1034.42
44.7882 -26.0096 -1035.33
44.799301 -25.7726 -1036.16
44.177898 -25.5187 -1036.5699
43.029499 -24.5837 -1037.74
42.553799 -24.598499 -1038.52
41.759602 -24.2707 -1039.23
40.786499 -23.8477 -1040.14
40.488098 -23.5485 -1040.74
39.7939 -23.229099 -1041.46
38.9659 -22.9601 -1042.1
38.316799 -22.625099 -1042.79
37.342098 -22.1404 -1043.1899
36.614799 -22.1073 -1044.09
34.475201 -21.5385 -1045.5601
33.823601 -21.254499 -1046.2
31.5767 -20.7227 -1047.59
23.3165 -19.7185 -1050.95
49.431499 -46.031601 -999.625
49.888199 -45.246399 -1000.99
50.492401 -44.321899 -1002.17
50.8699 -43.775101 -1003.66
51.4501 -42.9151 -1004.52
51.647301 -42.285599 -1005.81
51.669899 -41.223 -1007.46
51.994801 -40.577099 -1008.43
52.020401 -40.082802 -1009.15
52.477798 -39.471699 -1010.14
52.496498 -38.667599 -1011.15
52.598598 -38.490799 -1011.74
52.860001 -37.509102 -1013.28
52.558601 -36.783901 -1014.66
52.347801 -36.478401 -1015.24
52.2864 -36.077999 -1015.87
52.200901 -35.6973 -1016.49
51.857399 -35.041901 -1017.71
51.793201 -34.6866 -1018.34
51.970001 -34.217499 -1019.02
51.727699 -33.705502 -1019.74
51.373299 -32.511799 -1022.05
50.7939 -32.355499 -1022.52
51.0718 -31.851101 -1023.25
49.966099 -30.5513 -1025.8101
49.815399 -30.2131 -1026.28
49.5909 -29.9182 -1026.86
49.597599 -29.147699 -1028.12
49.3876 -28.864201 -1028.63
49.071301 -28.6541 -1029.0699
48.479599 -28.226601 -1029.98
48.183399 -28.01 -1030.45
47.909901 -27.756901 -1030.91
47.671799 -27.532301 -1031.36
47.056301 -27.416401 -1032.11
46.777302 -26.505501 -1033.1801
46.375099 -26.0926 -1033.49
46.0914 -26.170799 -1034.01
45.547699 -25.7397 -1034.8199
45.492699 -25.2463 -1035.23
44.8078 -25.0755 -1036.08
43.785 -24.535801 -1037.03
41.5145 -23.8591 -1039.49
41.285 -23.1637 -1039.97
39.774399 -22.719 -1041.28
39.0397 -22.640499 -1041.8
38.855499 -21.941601 -1042.46
35.174301 -21.0441 -1045.17
50.8871 -43.4585 -1002.51
51.011501 -43.135899 -1003.45
51.608799 -41.780102 -1005.43
51.978298 -41.322701 -1006.61
52.098099 -40.424099 -1007.42
52.305099 -40.0975 -1008.43
52.194302 -39.547001 -1009.05
52.520401 -39.0909 -1009.71
52.520401 -38.4561 -1010.83
52.470699 -38.064201 -1011.51
52.690498 -37.1357 -1012.95
52.611099 -36.279999 -1014.46
52.688801 -35.852798 -1015.1
52.075401 -34.8531 -1016.95
52.3214 -34.141399 -1017.74
51.8596 -34.1245 -1018.21
51.6703 -33.812 -1018.81
51.876202 -32.9067 -1020.11
51.178001 -32.479099 -1021.23
51.004902 -31.7603 -1022.41
50.841999 -31.0804 -1023.61
50.953602 -30.7185 -1024.17
50.367802 -30.5889 -1024.58
50.3577 -30.053301 -1024.99
49.8564 -30.0467 -1025.62
49.347401 -28.765499 -1027.87
49.478401 -28.231899 -1028.6801
48.8461 -28.235001 -1029.14
48.529598 -27.7272 -1029.84
48.323799 -27.459499 -1030.3101
47.375198 -27.178801 -1031.12
47.023499 -26.0187 -1033.04
45.945999 -25.5345 -1033.87
45.7929 -25.187401 -1034.73
44.421501 -24.5865 -1036.37
43.4645 -23.8734 -1037.5
42.447399 -23.221901 -1038.62
38.9132 -21.470501 -1042.3101
36.398701 -21.2689 -1043.72
46.9566 -48.124901 -995.09998
49.865002 -44.635601 -999.59802
51.047901 -42.624401 -1003.25
52.057899 -40.512798 -1006.37
52.358898 -38.823502 -1008.98
52.368698 -38.544701 -1009.96
52.686401 -37.862099 -1010.34
52.703701 -37.074501 -1011.95
52.649399 -36.678299 -1012.67
52.720798 -35.679199 -1014.07
52.527599 -35.374001 -1014.88
52.399799 -35.035702 -1015.52
52.198002 -33.514301 -1018.15
51.937599 -33.2262 -1018.77
51.739201 -32.174099 -1020.57
51.290901 -31.548 -1021.71
50.721298 -30.987499 -1022.85
50.674801 -30.304001 -1023.93
50.626999 -29.9897 -1024.49
50.181301 -29.4195 -1025.52
49.692001 -28.9891 -1025.78
49.553001 -28.9816 -1026.5
49.069302 -27.746401 -1029.04
48.863701 -27.4084 -1029.23
48.510502 -27.0951 -1030.02
48.1796 -26.726999 -1030.62
47.2808 -26.3867 -1031.3101
47.144001 -25.738001 -1032.4
46.565201 -25.295 -1033.3199
45.702099 -24.849199 -1034.28
45.4095 -24.480301 -1034.97
44.317902 -24.0797 -1036.03
44.1577 -23.726299 -1036.6
43.556301 -23.344601 -1037.37
41.447701 -22.308001 -1039.61
40.851002 -21.916 -1040.33
38.815899 -21.709999 -1041.51
38.745201 -21.0305 -1042.1801
37.603199 -20.8825 -1042.8101
36.457001 -20.714399 -1043.49
50.712799 -42.142899 -1002.84
51.740898 -40.9716 -1004.25
51.933998 -40.5928 -1005.29
52.279499 -39.898998 -1006.27
52.322601 -39.402699 -1007.08
52.304298 -39.128101 -1008.04
52.6311 -38.325699 -1008.91
52.241299 -37.987099 -1009.6
52.538101 -36.618 -1011.74
52.415901 -36.238499 -1012.44
52.5327 -35.879299 -1013.57
52.305099 -34.151001 -1016.03
52.323502 -33.769699 -1016.72
52.077202 -33.067402 -1017.96
52.023899 -32.675201 -1018.56
51.7276 -32.397598 -1019.15
51.791401 -31.9855 -1019.79
51.769199 -31.607901 -1020.43
51.540199 -31.313801 -1021
51.572701 -30.915001 -1021.61
51.566601 -30.5776 -1022.2
50.8018 -29.7932 -1023.6
50.6152 -28.873301 -1025.21
50.161098 -28.5968 -1025.91
49.740799 -28.337799 -1026.28
49.423901 -28.150801 -1026.84
49.279499 -27.491501 -1027.98
48.662998 -26.711201 -1029.26
47.396702 -25.9725 -1030.98
46.676899 -25.089399 -1032.6801
46.110298 -24.9207 -1033.63
45.734699 -24.269899 -1034.0601
45.3172 -24.1863 -1034.6801
45.225399 -23.7498 -1035.27
44.407398 -23.4261 -1036.03
43.4491 -22.8452 -1037.1899
43.2201 -22.646299 -1037.59
42.439098 -22.214701 -1038.1
41.528198 -21.621901 -1039.24
41.176399 -21.614401 -1039.83
40.294998 -21.0443 -1040.58
38.8741 -20.7295 -1041.22
36.255402 -20.2798 -1043.34
35.485001 -19.489201 -1044.7
32.442101 -19.0196 -1046.22
25.6406 -17.6667 -1049.78
47.2813 -46.757599 -995.065
50.202599 -43.318802 -999.64801
50.3512 -43.010399 -1000.55
51.854801 -41.1637 -1003.19
51.934299 -40.598499 -1004.12
51.5452 -40.2892 -1004.99
52.245399 -39.419201 -1006.04
52.349899 -38.952202 -1006.9
52.696301 -38.237999 -1007.92
52.533298 -37.828899 -1008.7
52.5532 -36.983501 -1010.17
52.400902 -36.194401 -1011.54
52.5186 -35.611 -1012.45
52.563202 -35.323399 -1013.39
52.1161 -34.101501 -1015.13
52.182598 -33.277901 -1016.5
51.977299 -32.981998 -1017.1
52.076199 -32.405701 -1017.48
51.957901 -32.202202 -1018.38
52.109501 -31.747601 -1019.05
51.779499 -31.491699 -1019.63
51.670399 -31.156401 -1020.22
51.538101 -30.8057 -1020.83
51.431999 -30.2458 -1021.53
51.1483 -30.1859 -1022.03
51.042999 -29.853001 -1022.61
50.543701 -29.2547 -1023.99
50.293598 -28.3724 -1025.24
50.213402 -28.0434 -1025.75
49.825699 -27.6898 -1026.72
49.300999 -27.341999 -1027.2
48.920101 -26.9212 -1028.1
48.610001 -26.593 -1028.6801
47.909401 -26.195999 -1029.62
47.357101 -25.0714 -1031.47
46.739799 -24.6423 -1031.74
46.498199 -24.6887 -1032.4399
46.4431 -24.3708 -1032.9399
45.6992 -23.421301 -1034.66
45.192402 -23.26 -1035.09
43.381401 -22.088499 -1037.45
41.471298 -21.1919 -1038.99
41.217701 -21.0709 -1039.67
37.5588 -20.109699 -1042.63
35.833801 -19.589399 -1043.9399
34.539101 -19.098 -1044.64
31.7603 -18.238899 -1046.63
28.1436 -17.8083 -1048.77
25.2955 -17.3041 -1049.72
47.702801 -45.945801 -995.32202
48.9953 -44.334702 -997.39899
50.051899 -43.001099 -999.07898
50.468102 -42.459202 -1000.4
51.5938 -40.109798 -1003.88
51.808701 -39.640301 -1004.63
52.4203 -38.827702 -1005.92
52.239899 -38.592602 -1006.72
52.500702 -37.637402 -1007.62
52.6647 -37.3423 -1008.49
52.596901 -36.843102 -1009.25
52.612801 -36.412899 -1009.92
52.6721 -35.098202 -1012.17
52.646 -34.168999 -1013.79
52.7192 -33.688599 -1014.49
52.4342 -33.020401 -1015.71
52.252201 -32.4879 -1016.99
52.087002 -31.586399 -1018.24
52.176498 -31.1868 -1018.9
51.715599 -30.585501 -1020.07
51.749901 -30.1982 -1020.69
51.599998 -29.884899 -1021.28
51.125999 -29.7356 -1021.82
51.123001 -28.93 -1022.99
50.9594 -28.250299 -1024.15
50.526001 -28.074499 -1024.62
49.952301 -27.302799 -1025.88
49.725201 -26.995501 -1026.59
49.4958 -26.736799 -1027.0699
49.230598 -26.4858 -1027.3199
48.812 -26.3048 -1027.99
48.3741 -25.807301 -1028.92
48.326 -25.467699 -1029.52
47.5373 -24.7607 -1030.51
47.312599 -24.630699 -1031.1899
46.9809 -24.0343 -1032.3
46.255798 -23.931999 -1032.63
44.986801 -22.8242 -1034.8
43.020901 -21.723801 -1037.16
42.894798 -21.452499 -1037.62
42.294102 -21.0571 -1038.4
42.1064 -20.8286 -1038.8
41.254902 -20.538601 -1039.48
40.1022 -20.1278 -1040.24
39.324799 -20.0875 -1041.0699
38.535801 -19.6231 -1041.6801
37.668598 -19.344801 -1042.3
36.8535 -18.998899 -1042.9301
35.7033 -19.034201 -1043.74
35.433998 -18.280199 -1044.4
32.674801 -18.072201 -1045.74
48.035 -44.671299 -995.38098
50.252399 -41.5938 -1000.1
51.638901 -40.1455 -1002.77
51.371799 -39.734699 -1003.7
51.698399 -39.147701 -1004.43
52.577801 -37.8983 -1006.66
52.4147 -37.240799 -1006.98
52.5308 -36.826698 -1008.33
52.547699 -36.3717 -1008.96
52.4758 -35.824402 -1009.61
52.781101 -35.3979 -1010.75
52.762001 -34.955101 -1011.3
52.759102 -34.108601 -1012.81
52.639999 -33.634499 -1013.66
52.787601 -33.1255 -1014.27
52.653801 -32.4352 -1015.63
52.153099 -31.194401 -1017.6
52.093601 -31.0539 -1018.12
51.897499 -29.993 -1019.94
51.637699 -29.7159 -1020.49
51.7006 -29.324499 -1021.13
51.422798 -29.2052 -1021.71
51.325901 -28.7108 -1022.32
51.2701 -28.320101 -1023.11
50.935699 -27.717199 -1023.99
49.251999 -25.975599 -1027.4
48.6628 -25.1884 -1028.8101
48.176102 -25.049601 -1029.24
48.040001 -24.7397 -1029.73
47.6786 -24.2309 -1030.6899
46.837601 -23.5697 -1032.01
46.487999 -23.378401 -1032.42
45.540199 -22.440001 -1034.1801
44.848499 -22.349899 -1034.55
44.142399 -21.3617 -1035.96
43.176899 -21.4846 -1036.46
42.7328 -20.7348 -1037.87
42.133099 -20.3064 -1038.63
39.248798 -19.4123 -1040.8101
38.928799 -19.2456 -1041.15
36.149502 -18.3643 -1043.54
35.0406 -17.929701 -1044.03
34.444599 -17.833401 -1044.61
50.537498 -41.359699 -999.83502
50.431499 -40.822201 -1000.92
51.684101 -38.609901 -1004.28
52.183498 -37.425499 -1006.16
52.134701 -36.790298 -1006.68
52.480999 -36.342701 -1007.95
52.808201 -34.857399 -1010.38
52.860802 -33.986198 -1011.9
52.6549 -33.609501 -1012.74
52.727501 -33.082802 -1013.49
52.9151 -32.5853 -1014.2
52.796101 -32.2827 -1014.81
52.943501 -31.794201 -1015.54
52.665298 -31.4713 -1016.15
52.448898 -30.810699 -1017.34
52.1605 -30.5567 -1017.95
52.077499 -30.197599 -1018.53
51.955601 -29.8353 -1019.15
51.7864 -28.9564 -1020.44
51.461899 -28.5198 -1021.51
51.4529 -28.125099 -1022.17
50.738201 -27.709 -1023.11
50.215801 -26.1213 -1025.84
49.484699 -25.278 -1026.91
49.1609 -25.177601 -1027.73
48.844299 -24.9485 -1028.17
48.3172 -24.4902 -1029.09
47.1115 -23.595501 -1030.9
47.3083 -23.1973 -1031.45
46.666901 -22.7934 -1032.29
45.699902 -22.214899 -1033.51
45.116299 -22.1521 -1033.9301
45.1637 -21.698799 -1034.4301
43.9701 -20.985399 -1035.98
43.501099 -20.877899 -1036.42
42.733299 -20.1653 -1037.51
41.575901 -19.7344 -1038.66
39.754501 -18.988701 -1040.34
38.748402 -18.382 -1041.0601
37.668499 -18.304899 -1041.96
36.815498 -17.878799 -1042.42
35.520302 -17.204901 -1043.83
34.589802 -17.254601 -1044.47
33.494801 -16.850599 -1045.38
28.6786 -16.027 -1047.9
23.4998 -15.4002 -1050.0699
46.412102 -46.263199 -991.69397
49.973999 -41.630299 -998.59497
51.259499 -39.2603 -1002.19
51.450298 -38.752201 -1003.08
52.580101 -35.5187 -1008.42
52.673199 -34.844501 -1009.42
52.754002 -34.3046 -1010.28
52.871799 -33.841999 -1011.02
53.074902 -33.362999 -1011.82
52.9175 -32.217602 -1013.37
52.917801 -32.026501 -1014.08
52.7565 -31.366199 -1015.32
52.3153 -31.123899 -1015.89
52.448399 -30.671301 -1016.56
52.288101 -29.9597 -1017.77
52.097099 -29.667801 -1018.36
51.929298 -28.1744 -1020.85
51.560398 -28.179399 -1021.33
51.462601 -27.2234 -1022.72
51.171501 -26.5672 -1023.76
50.8452 -26.3484 -1024.25
50.7962 -26.149599 -1024.8
50.103901 -25.6604 -1025.67
50.089699 -25.3043 -1026.17
49.117001 -24.650499 -1027.5601
48.851898 -24.441299 -1028.02
48.6866 -24.1686 -1028.49
48.1833 -23.6584 -1029.4399
47.5452 -22.9156 -1030.8101
47.1903 -22.7279 -1031.24
47.1129 -22.444 -1031.74
46.495499 -22.0784 -1032.8199
45.735802 -21.671499 -1033.35
45.2369 -21.559 -1033.77
45.3853 -20.9797 -1034.28
43.407501 -20.379 -1036.14
42.439499 -19.818701 -1037.28
41.599201 -19.242701 -1038.4301
40.5872 -19.016399 -1039.1
36.294601 -17.221701 -1043.09
34.5135 -16.7598 -1044.35
33.412601 -16.369801 -1045.1899
32.3806 -16.375601 -1046.02
31.517099 -15.9484 -1046.3101
42.362 -49.082298 -986.37
48.411598 -43.0672 -995.30701
49.894199 -41.1315 -998.354
51.326401 -39.3713 -1001.05
51.4603 -39.020901 -1001.96
51.819901 -38.0294 -1002.99
52.033501 -37.5695 -1004.14
52.1353 -36.686001 -1004.98
52.205002 -36.393902 -1005.84
52.349701 -36.001099 -1006.96
52.455399 -35.317699 -1007.58
52.356899 -34.8741 -1008.41
52.7925 -33.477798 -1011.04
52.977402 -31.477501 -1013.95
52.8256 -30.799 -1015.16
52.5602 -30.480301 -1015.78
52.454498 -30.1702 -1016.38
52.6535 -29.688601 -1017.06
52.297699 -29.076401 -1018.22
52.0802 -28.3741 -1019.48
51.719601 -28.108801 -1020.03
52.064899 -27.6168 -1020.7
51.583401 -27.6562 -1021.11
51.646702 -27.0268 -1021.84
51.4119 -26.7355 -1022.38
50.598801 -25.6828 -1024.46
50.394901 -25.526699 -1025.2
49.991001 -25.1688 -1025.47
50.080299 -24.775999 -1026
49.532799 -24.652 -1026.41
48.919701 -23.899599 -1027.85
48.8633 -23.587799 -1028.35
48.315102 -23.3528 -1028.58
48.563702 -23.0298 -1029.33
47.778099 -22.6411 -1030.1899
46.702499 -21.7472 -1031.95
46.2719 -21.278099 -1032.36
45.816898 -21.246 -1032.99
