# .PCD v0.7 - Point Cloud Data file format
VERSION 0.7
FIELDS x y z
SIZE 4 4 4
TYPE F F F
COUNT 1 1 1
WIDTH 1583
HEIGHT 1
VIEWPOINT 0 0 0 1 0 0 0
POINTS 1583
DATA ascii
-0.214532 -77.492798 -983.31299
2.4641199 -77.605598 -982.76898
6.7856302 -77.876404 -982.547
8.5744104 -77.971497 -982.453
13.7772 -78.443298 -983.16699
18.6187 -78.891098 -984.88702
-8.9948196 -76.648598 -986.258
-7.9393201 -76.676598 -985.67999
-5.0076098 -76.7313 -984.45099
-3.96773 -76.7286 -983.80402
-0.00079345697 -76.971397 -982.79602
1.26367 -76.938698 -982.33197
4.2999301 -77.204803 -982.258
8.4913502 -77.389198 -982.06
10.7259 -77.576202 -982.34802
13.0529 -77.734398 -982.52002
17.816799 -78.196701 -984.04901
19.1947 -78.336998 -984.32202
-14.8112 -76.076897 -989.71399
-9.7985802 -76.043701 -986.05103
-4.58604 -76.137199 -983.64398
-3.4993701 -76.187897 -983.19098
-0.68866003 -76.332703 -982.41998
0.63761002 -76.331902 -981.98901
1.1750799 -76.393097 -982.25598
4.5317702 -76.543198 -981.89899
7.2073498 -76.737602 -981.64203
9.0099201 -76.841904 -981.72198
10.9612 -77.120003 -981.95898
13.5817 -77.232002 -982.33301
20.427299 -77.905197 -984.73999
25.3715 -78.583099 -987.39697
-10.1066 -75.429398 -985.92798
-8.5891705 -75.446503 -985.06799
-4.6542501 -75.545303 -983.25598
-3.57125 -75.587303 -982.896
-1.39161 -75.682404 -982.33698
0.048153199 -75.731201 -981.71399
1.69172 -75.786201 -981.54498
4.9434299 -75.996498 -981.28198
6.2019 -76.140503 -981.091
7.1364598 -76.115601 -981.02301
16.4709 -76.908096 -982.802
-18.725 -74.943199 -992.95898
-13.8359 -74.7771 -987.83002
-9.6851301 -74.839699 -985.146
-3.92822 -74.977303 -982.54401
1.6132801 -75.193199 -981.18701
5.36099 -75.436699 -980.87598
6.4797401 -75.481697 -980.70801
14.6528 -76.125702 -981.99298
18.581301 -76.607903 -982.987
-18.181801 -74.397003 -991.64697
-15.4211 -74.298698 -988.94202
-14.0511 -74.289299 -987.745
-9.2342396 -74.315903 -984.54102
-5.2586498 -74.360603 -982.46698
-4.4781499 -74.376602 -982.35101
0.41366801 -74.588501 -980.93597
1.5573699 -74.651398 -980.72699
2.8877599 -74.745201 -980.771
5.28233 -74.842102 -980.422
6.3874602 -74.956299 -980.47998
10.9081 -75.2407 -980.74402
23.573099 -76.5131 -984.73199
-15.4763 -73.734901 -988.62
-10.7212 -73.729301 -985.13599
-8.5029297 -73.625298 -983.927
-4.8422098 -73.824898 -982.03302
-3.49634 -73.787399 -981.71698
0.34770501 -74.020699 -980.65302
6.3192301 -74.334801 -980.05798
11.9747 -74.7892 -980.55798
16.1998 -75.128304 -981.22302
-18.7659 -73.267097 -991.30402
-15.5179 -73.180702 -988.11298
-14.1593 -73.161201 -986.97498
-11.6531 -73.165802 -985.37903
-8.6680298 -73.019302 -983.409
-4.8787398 -73.2425 -981.62701
-0.19382 -73.433998 -980.15503
0.877361 -73.506699 -980.04797
5.4105201 -73.640198 -979.573
6.54321 -73.740097 -979.64801
19.4921 -74.824303 -982.04199
-17.797899 -72.959396 -989.935
-15.9899 -72.574402 -987.95398
-14.8847 -72.426102 -987.216
-10.8238 -72.5802 -984.30902
-9.9118605 -72.579102 -983.62201
-8.9001303 -72.631798 -983.40302
-6.3243399 -72.654198 -981.97101
-5.4172001 -72.684196 -981.43103
-4.9418001 -72.668098 -981.289
-0.264893 -72.888802 -980.17798
1.05908 -72.8582 -979.80103
1.91994 -72.983704 -979.66302
4.5974102 -73.116203 -979.55603
10.1588 -73.525101 -979.737
11.2207 -73.578499 -979.66302
18.4522 -74.191803 -981.39301
-25.5352 -72.917801 -1000.91
-21.4482 -72.194801 -993.729
-18.876301 -72.070297 -990.34601
-15.2264 -71.992401 -986.98901
-11.3158 -71.989899 -984.23999
-4.4697099 -72.132797 -980.76599
-3.9284 -72.114899 -980.58899
0.163441 -72.285797 -979.61499
6.1197 -72.632896 -978.94202
7.29707 -72.727402 -979.005
10.0923 -72.895897 -979.034
11.7614 -73.045197 -979.32501
22.784201 -74.081497 -982.862
-19.150299 -71.4114 -990.44397
-10.0484 -71.421402 -983.08197
-3.9877901 -71.577301 -980.474
-0.85698801 -71.692001 -979.46002
0.113879 -71.729698 -979.229
4.93226 -71.994698 -978.73798
6.0578098 -72.043701 -978.45099
7.2239199 -72.133698 -978.62
17.597799 -72.962601 -980.29401
-23.383301 -71.141701 -995.56201
-15.3369 -70.835999 -986.44397
-5.11238 -70.965599 -980.40802
-1.40399 -71.063904 -979.30499
5.3999701 -71.4347 -978.32098
6.6751699 -71.583199 -978.09802
7.7245598 -71.583099 -978.32599
10.4406 -71.7649 -978.47101
12.2321 -71.879799 -978.49799
15.2253 -72.139198 -979.367
15.7601 -72.184799 -979.27698
18.170799 -72.420403 -980.09399
-9.3490601 -70.321602 -982.07001
-4.63833 -70.3769 -979.784
-0.51027399 -70.555901 -978.61401
-0.016061701 -70.565002 -978.54602
0.80114698 -70.695 -978.49298
6.4871898 -70.944199 -978
10.3742 -71.174896 -978.11603
16.232201 -71.665497 -979.22198
18.366501 -71.9851 -979.73499
19.770599 -72.201797 -980.47198
-19.124901 -69.727898 -989.065
-15.0013 -69.632401 -985.20599
-14.5109 -69.651497 -984.93298
-5.6914501 -69.796402 -979.71198
-4.6845398 -69.802002 -979.44501
-0.55529898 -69.961304 -978.27802
4.2852101 -70.216499 -977.71198
5.09338 -70.380798 -977.69202
5.8489699 -70.329903 -977.62402
10.8449 -70.652199 -977.82501
17.361401 -71.1716 -979.10901
24.4011 -71.894402 -982.05298
-9.7215204 -69.108597 -981.29303
0.437062 -69.464798 -977.961
5.7950201 -69.711998 -977.17902
10.5549 -70.1465 -977.35699
17.554899 -70.705101 -978.66998
-10.7562 -68.5354 -981.61798
-5.3190098 -68.634697 -979.05298
-0.057250999 -68.834602 -977.32898
4.1434398 -69.111702 -977.35602
5.1454501 -69.144699 -976.89502
10.4716 -69.530701 -976.98102
16.290001 -69.992996 -977.96802
17.8613 -70.077797 -978.47198
-26.8382 -68.836304 -999.15601
-26.458 -68.420097 -998.27698
-25.6257 -68.383598 -996.66199
-15.1412 -67.959099 -984.28699
0.89029402 -68.346603 -977.03302
4.2892499 -68.484802 -976.604
5.3823199 -68.552597 -976.54999
9.6209402 -68.871902 -976.61298
10.6699 -68.943298 -976.78497
12.489 -69.0867 -977.07202
15.9305 -69.359299 -977.65198
20.974001 -69.822502 -979.25
-24.9182 -67.740097 -994.83197
-20.9869 -67.516998 -989.18103
-14.685 -67.419502 -983.45801
-9.8592596 -67.454399 -980.44702
-6.3512101 -67.544998 -978.896
-4.88902 -67.599998 -978.42499
5.04146 -68.045898 -976.42499
5.61448 -68.099701 -976.54797
9.5671196 -68.326202 -976.26898
10.5955 -68.4095 -976.42499
17.7094 -68.963898 -977.76599
24.014099 -69.579803 -980.50897
-25.7372 -67.240799 -995.88098
-21.927999 -67.006104 -990.13501
-20.2356 -66.9459 -988.04797
-14.5135 -66.7005 -983.05603
-10.1775 -66.789803 -980.33502
-6.3961601 -66.973099 -978.51703
-4.7182598 -66.9384 -977.90997
0.40496799 -67.179802 -976.47198
4.9857702 -67.487 -975.97302
10.0001 -67.781303 -976.15399
10.5346 -67.833199 -976.099
11.7548 -67.9282 -976.28601
17.6397 -68.374702 -977.297
29.7017 -69.646896 -983.17999
-23.798401 -66.451797 -992.05103
-23.351299 -66.429199 -991.50098
-22.8881 -66.417099 -990.89203
-18.905001 -66.267899 -986.341
-16.111799 -66.266197 -983.81403
-9.4290504 -66.333801 -979.59802
3.4784 -66.788498 -975.66498
4.4310699 -66.8433 -975.63702
4.9361 -66.898399 -975.68701
10.4941 -67.229301 -975.61902
21.306 -68.135803 -978.20203
-15.7651 -65.710899 -983.36499
-5.5686102 -65.845901 -977.703
-0.92398 -66.045799 -976.28802
4.3810301 -66.311897 -975.39398
5.4719701 -66.372002 -975.37097
10.4148 -66.678596 -975.26099
16.2131 -67.117699 -976.48199
17.496099 -67.233002 -976.74103
21.2258 -67.564697 -978.10498
22.3841 -67.681 -978.44098
23.071899 -67.751602 -978.86902
-19.5061 -65.153099 -986.41699
-15.8056 -65.124702 -982.98102
-5.60215 -65.277496 -977.39801
-0.46622801 -65.471802 -975.815
0.63859099 -65.514099 -975.68799
5.4001698 -65.8041 -975.146
10.3525 -66.102798 -975.13098
14.7505 -66.571999 -975.83899
16.787901 -66.588501 -976.15601
-19.5362 -64.565804 -986.02502
-12.279 -64.594498 -980.409
-10.5987 -64.575996 -979.27301
-9.5641899 -64.598198 -978.82397
0.037963301 -64.939598 -975.35797
3.79196 -65.140099 -974.89801
4.79176 -65.184799 -974.88702
10.4215 -65.6138 -974.56897
16.7134 -66.009399 -975.95398
-11.099 -63.997398 -979.26398
-5.6862402 -64.148804 -976.685
-0.56577301 -64.353104 -975.29102
5.8788199 -64.700996 -974.56799
10.5113 -65.088402 -974.47998
17.281601 -65.483299 -975.875
22.4039 -66.100098 -977.34399
23.4907 -66.085098 -978.05603
-10.1624 -63.471802 -978.51801
-5.7306199 -63.5741 -976.48499
-0.596641 -63.773998 -974.961
4.6982799 -64.021004 -974.08301
9.6656103 -64.354797 -974.26801
14.8817 -64.7201 -975.02502
20.9188 -65.227203 -976.422
23.4335 -65.487999 -977.75598
29.758499 -66.2481 -981.13098
-27.372801 -63.2103 -995.38098
-11.5869 -62.877399 -978.62903
-10.2018 -62.921299 -978.22998
-6.0227098 -62.987598 -976.29797
-0.37261999 -63.248798 -974.71002
10.4404 -63.888199 -973.94702
23.3612 -64.914497 -977.14001
27.656099 -65.464897 -979.5
-24.589899 -62.473301 -990.49701
-15.9952 -62.2957 -981.58398
-6.6329999 -62.342602 -976.12201
-5.2754002 -62.489601 -975.72601
3.60304 -62.893299 -973.89203
5.4514799 -62.945499 -973.63397
9.55762 -63.231998 -973.651
-30.424 -62.149899 -1001.74
-27.466299 -62.075199 -994.60797
-22.773701 -61.834499 -987.59998
-16.0117 -61.751301 -981.16803
-11.2425 -61.812401 -978.125
-0.63195801 -62.016399 -973.77197
2.6026399 -62.254601 -973.08801
10.0306 -62.754002 -973.20599
-29.807699 -61.756302 -999.258
-20.687901 -61.219002 -985.14899
-19.7377 -61.195801 -983.93701
-19.267599 -61.200901 -983.60699
-16.058901 -61.215401 -981.00403
-1.32192 -61.561798 -973.784
-0.0507202 -61.555 -973.50702
4.4539499 -61.839298 -972.677
5.57939 -61.9235 -972.83099
9.9177303 -62.1954 -972.73602
-26.744699 -61.194401 -992.56799
-24.702999 -60.717999 -989.34802
-9.8712101 -60.698002 -976.84003
-1.1501499 -61.013901 -973.41901
3.8689499 -61.226299 -972.58002
4.66467 -61.303398 -972.57501
10.1733 -61.669701 -972.53802
14.479 -61.9291 -973.25299
16.473 -62.1395 -973.36603
22.2841 -62.559101 -975.28802
-29.562901 -60.5345 -997.65302
-27.986799 -60.741699 -994.48401
-27.167801 -60.311298 -992.92401
-11.1802 -60.112 -977.05103
-5.5111799 -60.239101 -974.50598
-1.28497 -60.460098 -973.09198
0.73856401 -60.564701 -973.00702
1.86561 -60.605301 -972.46802
3.8556299 -60.682598 -972.36102
9.3166599 -61.008499 -972.20697
11.0178 -61.1143 -972.362
14.4493 -61.3442 -972.72101
20.938801 -61.877701 -974.40002
22.2015 -61.984798 -975.12
-0.407583 -59.956001 -972.89899
8.8280296 -60.4137 -971.97498
14.4546 -60.772202 -972.71802
16.122299 -60.900398 -972.85999
19.8153 -61.217201 -973.86401
20.383699 -61.236599 -973.92499
22.139601 -61.414101 -974.63599
25.5077 -61.7122 -975.97601
-15.8369 -58.889599 -979.33801
14.4866 -60.265701 -972.849
16.4769 -60.588299 -973.20599
21.7773 -60.992802 -974.36401
-31.5986 -59.007702 -1003.02
-19.9772 -58.347099 -982.539
9.0728798 -59.496498 -972.27502
22.1821 -60.312099 -974.604
25.444 -60.608398 -975.883
-1.73615 -58.2481 -972.98499
5.5471802 -58.563702 -971.99597
10.7506 -59.0144 -972.22498
-31.249701 -57.8405 -999.83002
-30.484501 -57.733002 -997.72998
-10.9831 -57.351398 -976.25299
-5.5123501 -57.525002 -973.86102
-0.91459203 -57.7104 -972.66498
15.2942 -58.730301 -972.54797
17.074301 -58.908501 -973.06799
-31.018999 -56.885601 -998.06201
-28.7752 -56.841801 -994.09497
-26.141001 -56.852402 -988.90601
-6.8446002 -56.882099 -974.104
3.8285699 -57.4259 -971.63501
5.4643102 -57.543098 -971.59601
9.8118696 -57.770302 -971.49597
23.5289 -58.811401 -974.901
-31.5842 -56.4482 -1000.05
-26.998699 -56.3251 -989.73401
-26.5825 -56.310101 -988.93903
-14.3091 -56.221699 -977.51501
-5.5692401 -56.466999 -973.35602
10.3403 -57.270599 -971.34698
-30.220501 -55.760201 -995.70599
-28.322701 -55.834499 -991.57703
-25.8592 -55.715698 -987.50598
-6.1306701 -55.914799 -973.35901
9.1866398 -56.661999 -971.008
10.2973 -56.704399 -971.06702
10.8882 -56.7407 -971.01801
14.8341 -57.064701 -971.70599
15.9978 -57.136799 -971.698
-31.7894 -55.8801 -999.42902
-28.839701 -55.2593 -992.01001
-27.979799 -55.231201 -990.30798
-19.5522 -55.067799 -981.21698
-6.1682301 -55.319801 -973.03601
4.2242599 -55.795399 -970.78802
4.8053598 -55.7995 -970.69098
8.6462097 -56.065201 -970.72198
10.2302 -56.141399 -970.85699
-31.502399 -54.893002 -999.39203
-30.3813 -55.128502 -995.10999
-28.4394 -55.046101 -990.95001
-0.79205298 -55.060501 -971.55402
-31.1481 -54.3158 -996.38
13.1689 -54.815899 -970.37402
-16.3281 -53.426102 -977.59302
-1.63861 -53.842201 -971.15698
4.6807499 -54.171299 -970.185
8.7800303 -54.543999 -970.24298
10.0719 -54.458801 -970.02502
14.4735 -54.749199 -970.03802
15.3503 -55.0084 -970.177
20.401699 -55.179699 -971.23999
-12.6602 -52.942101 -974.66699
-10.7354 -52.983101 -973.84698
-5.74546 -53.1502 -972.12201
4.0855699 -53.586102 -970.11102
14.9623 -54.212101 -969.76001
20.338499 -54.606098 -971.17102
23.0791 -55.045898 -972.17499
-0.0973152 -52.846401 -970.33899
3.5240901 -53.006302 -969.98297
8.9176302 -53.299099 -969.63397
14.9286 -53.6567 -969.354
4.01583 -52.4977 -969.68701
9.0637798 -52.8354 -969.30103
14.3417 -53.069 -968.974
21.487101 -53.603401 -971.04199
27.486 -54.2299 -973.578
-31.9496 -51.336498 -997.25201
-31.587999 -51.251999 -996.35199
-29.1457 -51.1451 -991.41199
-6.6002798 -51.434101 -971.54303
8.5939302 -52.209301 -969.25201
9.3725405 -52.257999 -969.10303
13.2975 -52.497501 -968.95502
14.3092 -52.528702 -969.02899
15.4303 -52.6367 -969.29498
22.7374 -53.183399 -971.255
-28.7446 -50.619701 -990.53302
5.0977998 -51.483398 -969.15601
8.8253403 -51.719501 -969.039
9.6760902 -51.7248 -969.03497
15.423 -52.089199 -968.77002
21.0469 -52.5131 -970.31403
-33.585201 -50.667099 -1000.96
-32.369301 -50.5327 -997.93402
-30.474501 -50.408798 -993.19098
-27.6684 -50.017101 -988.099
-25.591 -50.151199 -984.96802
-25.199499 -50.137699 -984.59497
-24.726101 -50.1614 -983.96301
-21.615299 -50.119801 -980.33197
-21.219299 -50.133202 -979.987
-17.4191 -50.171299 -976.78998
-17.002199 -50.1488 -976.58899
-1.78793 -50.613098 -969.83002
9.3013897 -51.1819 -968.58197
9.8844204 -51.229099 -968.67297
26.9473 -52.465401 -972.66699
-33.874901 -50.1717 -1001.9
-31.657 -49.877899 -995.55298
-31.355301 -50.144402 -994.78699
-30.1362 -49.748001 -992.18201
-29.7712 -49.738998 -991.48401
-29.387199 -49.736801 -990.76703
-28.945299 -49.719501 -989.93402
-28.519699 -49.691101 -989.22302
-27.202999 -49.6455 -987.11902
-26.020201 -49.6134 -985.32599
-5.9484701 -49.861 -970.56897
-1.33262 -50.1035 -969.75403
25.9928 -51.8661 -971.86499
28.2799 -52.000599 -973.07501
-30.4809 -49.5947 -992.953
-29.4097 -49.187801 -990.59802
-28.117901 -49.144798 -988.44
-11.4122 -49.170101 -972.72998
19.492701 -50.742901 -969.26001
22.506901 -50.9352 -970.28497
31.1786 -51.345001 -974.36401
37.794998 -52.0522 -979.289
-19.8255 -48.4179 -977.76202
10.3824 -49.577801 -968.22302
11.1056 -49.273102 -968.03601
14.2034 -49.8013 -968.30701
16.5987 -50.008202 -968.78101
19.454201 -50.196602 -968.96399
25.0182 -50.245098 -970.71698
29.6201 -50.9995 -973.43701
30.474001 -50.741199 -973.81403
-18.381599 -47.878799 -976.51099
8.6358099 -48.9305 -967.91699
14.1877 -48.874901 -967.68103
19.427601 -49.663502 -969.04498
22.6264 -49.512798 -969.90198
-6.59305 -47.676201 -969.96198
-1.43646 -47.891602 -968.935
8.6205997 -48.407299 -967.63702
15.3562 -48.785099 -967.98901
20.5471 -49.1595 -969.11102
23.792999 -49.396801 -970.17499
27.872299 -49.964802 -972.27002
32.594501 -50.3792 -975.021
-32.573601 -47.1544 -996.27899
-18.8883 -46.8111 -976.45099
-6.8015099 -47.191299 -970.03003
26.1565 -49.059101 -971.25201
-30.661301 -46.442501 -991.29901
0.184246 -47.069 -967.51001
7.8119502 -47.368599 -967.52899
20.2754 -48.198601 -968.80499
-34.308498 -46.2295 -1000.97
-32.926498 -46.389702 -996.81299
-32.209 -46.323898 -994.94397
-29.1992 -45.8298 -988.013
-25.7211 -45.7775 -983.65503
8.5466299 -46.781101 -966.75
9.9326801 -46.918499 -967.276
11.1531 -46.939201 -966.78699
15.1223 -47.185799 -967.16302
27.738899 -48.178902 -971.58502
-33.911201 -45.332699 -999.65399
-32.280201 -45.693298 -994.633
-29.8354 -45.065701 -989.20099
-28.2248 -45.281898 -986.77002
-9.45154 -45.426701 -969.98798
2.7414401 -45.9865 -967.44397
5.40803 -46.119202 -966.81403
15.0445 -46.6441 -966.83899
27.559299 -47.600101 -971.12799
-33.7626 -45.0322 -998.52399
-32.8978 -44.679001 -996.18799
-31.128 -44.806301 -991.17902
-30.4014 -44.779701 -989.71899
-27.351299 -44.699902 -985.38599
-26.143499 -44.694302 -983.82202
-25.754299 -44.707802 -983.31702
-25.3435 -44.688702 -982.83301
-23.5865 -45.026901 -980.51001
-21.182301 -44.5532 -977.89099
0.13242 -45.305801 -967.18597
20.105301 -46.501701 -967.87299
-31.952101 -44.263 -992.59601
-31.688101 -44.5429 -991.862
-30.021099 -44.181999 -988.80603
-29.2092 -44.165798 -987.65802
4.2224898 -44.9515 -966.45398
8.8717299 -45.173801 -965.95801
12.3475 -45.362801 -965.91302
14.0634 -45.556999 -966.20203
-32.095299 -43.500198 -992.25299
-22.7472 -43.493698 -979.08002
-18.0082 -43.6152 -974.83801
-9.5375404 -43.8349 -969.70099
8.8244696 -44.642502 -965.87402
9.97684 -44.705101 -965.716
14.9308 -44.9855 -965.95898
17.4 -45.1292 -966.25702
19.5494 -45.279099 -966.90302
20.7633 -45.394199 -967.28998
36.301201 -46.3241 -975.85602
-29.190201 -43.0709 -987.20203
-12.0587 -43.188801 -971.07703
-4.48946 -43.454201 -967.802
9.0108004 -44.224998 -965.60101
13.0365 -44.498402 -966.01001
16.715799 -44.571701 -965.987
19.781099 -44.929401 -966.75897
28.5009 -45.409302 -970.466
29.900499 -45.5354 -971.354
8.2633696 -43.523201 -965.45099
13.2656 -43.4319 -965.336
15.7442 -44.152901 -966.01898
17.8997 -44.1026 -966.06097
20.064699 -44.195801 -966.39697
20.696699 -44.2705 -966.836
31.1672 -45.114101 -971.77197
-13.0068 -42.122398 -971.05603
16.6593 -43.437302 -965.39398
17.8766 -43.5173 -965.742
22.631701 -43.838799 -967.26501
24.0044 -43.628399 -967.85498
29.2617 -44.637501 -970.80103
37.953499 -45.424702 -976.914
38.415298 -45.2076 -977.328
-14.8535 -41.499001 -971.73999
-8.4559097 -41.6759 -968.78998
5.4229698 -42.368401 -964.77698
6.2421298 -42.2318 -964.92999
21.3741 -42.846901 -966.487
21.933901 -43.240799 -966.638
27.7255 -43.3181 -969.19202
-31.5881 -40.941299 -990.716
-12.884 -41.030499 -970.586
-4.5732002 -41.321602 -967.08002
5.0125899 -41.760799 -964.65601
-24.015301 -40.3241 -979.77301
8.91187 -41.428398 -964.66302
15.0469 -41.804699 -965.17603
19.9366 -42.084301 -965.90399
25.5515 -42.4851 -968.36401
-32.877499 -39.912998 -992.823
-30.907801 -39.811401 -988.74701
-30.483101 -40.117298 -988.00598
-28.7577 -39.801201 -985.62903
-21.7771 -39.8055 -977.09399
-13.3216 -39.946602 -970.552
25.7453 -42.027302 -967.95203
-33.362801 -39.3918 -993.49902
-32.862701 -39.368401 -992.67297
-31.2861 -39.3036 -989.04999
-29.205999 -39.2673 -986.15399
-28.320499 -39.279301 -984.77899
-12.4756 -39.4823 -970.17902
-5.1398101 -39.7197 -966.74103
-3.7118001 -39.7635 -965.91498
15.9548 -40.781601 -964.98401
26.755899 -41.5354 -968.44098
-29.653299 -38.689301 -986.82202
-14.3628 -38.852901 -970.99799
17.393299 -40.3512 -964.354
27.441601 -40.998798 -968.48102
35.1479 -41.762901 -973.15997
-1.9042 -38.760502 -965.44897
2.93433 -39.084999 -964.40399
18.2029 -39.435001 -964.40802
25.162001 -40.459202 -967.56299
7.1370401 -38.644901 -963.995
8.6091003 -38.734798 -964.258
9.9417696 -38.4496 -964.10602
10.9912 -38.8601 -963.93402
13.6634 -39.016899 -964.47998
16.4482 -39.1506 -964.245
21.9247 -39.508801 -966.06897
22.710699 -39.795502 -966.62903
23.9799 -39.365299 -966.95001
25.5235 -39.780899 -967.58301
29.616301 -39.765499 -969.37598
-14.3827 -37.227501 -970.586
-10.091 -37.355701 -968.29602
0.021545401 -37.8465 -964.23798
1.8486201 -37.833801 -964.04797
3.81159 -37.941399 -963.789
4.9553599 -37.993 -963.76801
12.1564 -38.393902 -964.14801
23.1789 -39.0597 -966.37201
-33.310398 -36.559601 -992.67499
-22.634701 -36.531101 -976.92999
-17.7878 -36.638401 -972.77301
-1.39109 -37.194599 -964.698
-0.26228699 -37.2407 -964.185
6.0764499 -37.512199 -963.79797
19.8081 -38.289902 -964.67401
25.7624 -38.913101 -967.33301
37.180801 -39.549702 -974.30603
-35.338001 -36.483002 -997.04797
-33.384499 -36.045502 -992.33502
-7.29391 -36.442101 -967.237
-0.290115 -36.6786 -964.19397
14.1489 -37.4412 -964.18799
19.7789 -37.750599 -964.55701
25.416 -38.1455 -967.07202
29.578899 -38.0942 -968.87097
-9.5929403 -35.845699 -967.57501
8.3756104 -36.6852 -963.82098
26.309401 -37.839699 -967.172
-9.6995802 -35.2351 -967.77802
-4.8519001 -35.4259 -964.85602
24.7957 -37.045898 -966.35602
26.2787 -37.247898 -966.98602
-30.462601 -34.361 -987.01501
-28.355499 -34.396999 -983.46899
-25.8482 -34.373402 -979.97998
-21.837999 -34.451801 -975.79901
-4.3534698 -34.970001 -964.64697
8.1161003 -35.5354 -963.49597
-32.4011 -33.886101 -990.57703
-31.730801 -33.595501 -988.99799
-30.4489 -33.8671 -986.677
-30.0891 -33.860298 -986.18402
-25.198799 -34.158199 -978.72998
-21.0063 -33.949902 -974.84497
-33.2855 -33.3503 -991.93402
-32.563099 -33.070099 -990.39697
-32.008701 -33.3344 -989.80701
-14.4198 -33.526199 -969.76099
-9.1099396 -33.708199 -966.84497
4.1793799 -34.280499 -962.95801
24.924601 -35.098301 -965.82098
27.5571 -35.7757 -967.19598
34.029701 -35.746498 -970.51703
-34.186401 -32.7817 -993.14203
-30.081301 -32.764702 -985.836
-29.702801 -32.7472 -985.21899
-20.038099 -32.855 -973.59601
-18.1269 -32.884998 -971.76001
12.0149 -34.124901 -962.815
15.2186 -34.319199 -963.20599
23.551001 -34.466099 -965.12598
30.0665 -34.929199 -968.07501
37.487301 -35.8372 -972.98297
-23.5732 -32.251598 -976.85199
7.5481901 -33.373699 -962.849
15.3828 -33.444 -963.10699
16.4203 -33.8269 -963.172
18.158701 -33.5947 -963.48297
20.397301 -34.0923 -964.133
21.212601 -33.823898 -964.35999
22.301901 -34.194199 -964.73499
24.667 -34.3358 -965.54199
29.236 -34.3339 -967.36298
33.871601 -34.6576 -969.95502
36.020302 -35.134602 -971.56097
36.905899 -34.902199 -972.18903
-14.4183 -31.9335 -969.28101
-9.1352797 -32.102299 -966.43903
-4.5531001 -32.3442 -964.22699
-2.91732 -32.294899 -963.849
6.0329399 -32.734402 -962.81201
9.6952896 -32.934399 -962.68903
10.2562 -32.973999 -962.54498
13.475 -33.134102 -962.64301
19.854099 -33.1838 -963.612
21.7833 -33.812 -964.49298
27.927099 -33.706001 -966.63397
28.6187 -34.297298 -967.09399
35.188999 -34.2309 -970.64398
-10.6621 -31.521601 -967.04199
-8.6372299 -31.601999 -966.29602
-1.4431601 -31.845699 -963.73499
10.7294 -32.0737 -962.26501
12.4899 -32.545101 -962.31403
14.5588 -32.656601 -962.57599
20.4792 -32.643902 -963.69501
22.2505 -33.113201 -964.57501
22.8822 -33.163601 -964.52502
27.763599 -33.446098 -966.42798
28.433701 -33.526699 -966.89502
33.694901 -33.9086 -970.09601
38.033001 -34.231899 -973.177
-32.857201 -30.981701 -990.91199
-13.9366 -30.882601 -968.68701
-10.1629 -31.007 -966.78497
-9.1486301 -31.0476 -966.43597
13.6578 -32.246601 -962.55603
25.388901 -32.978298 -965.29901
26.0749 -33.009201 -965.62598
-32.808399 -30.0821 -990.97498
-29.431 -30.0203 -982.896
-8.6335096 -30.568399 -965.849
-8.17976 -30.591801 -965.66101
13.4192 -31.5704 -962.30499
26.3619 -32.320702 -965.50598
-33.158401 -29.5562 -991.57001
-32.637901 -29.810499 -989.58801
-32.118999 -29.8377 -988.96198
-28.982901 -29.4713 -982.07703
-8.6350098 -30.025801 -965.83301
-5.8248401 -30.1527 -965.30402
13.4059 -31.0147 -962.06598
14.1368 -31.0973 -962.26099
25.1124 -31.7148 -964.94299
33.2351 -32.328899 -968.98602
-32.1614 -28.702999 -988.617
-29.9429 -28.9788 -983.54901
-28.4888 -28.9632 -981.29199
-18.1399 -29.1838 -971.09601
-9.9114399 -29.3724 -966.20398
20.644699 -31.002199 -963.56799
26.3445 -31.271 -965.13202
-34.733601 -28.474701 -994.34497
-33.199902 -28.4909 -991.59698
-32.817101 -28.7542 -990.54901
-31.748699 -28.7171 -987.85303
-31.466299 -28.6693 -986.836
-28.050301 -28.426001 -980.87799
-25.866199 -28.489 -978.89099
-22.9669 -28.3529 -975.14301
-17.261801 -28.704599 -970.46503
-5.1146202 -29.044399 -963.96198
3.6922801 -29.498199 -962.29999
19.8836 -30.3859 -963.073
20.514999 -30.472401 -963.297
26.318001 -30.7491 -965.172
-28.576799 -27.863899 -981.13
-26.7999 -28.27 -979.66101
-15.1245 -28.156601 -968.974
-13.441 -28.263201 -967.96002
0.0093994103 -28.8202 -962.42999
18.0411 -29.710199 -962.526
19.6387 -29.803699 -962.93903
20.2325 -29.8437 -963.14801
22.138599 -29.962601 -963.61603
25.337999 -30.251499 -964.586
26.986401 -30.2283 -965.22699
-33.139301 -27.6989 -991.23102
-32.601898 -27.656799 -989.20099
-28.8318 -27.15 -980.84698
-19.300301 -27.5142 -971.82202
-3.7776799 -28.120199 -963.26801
-0.347776 -28.2721 -962.43298
6.4857998 -28.581699 -961.50702
6.9766102 -28.598499 -961.69299
10.1516 -28.7367 -961.51501
11.8783 -28.843901 -961.414
12.3918 -28.8631 -961.61499
12.8928 -28.888201 -961.61798
18.6894 -28.839001 -962.41101
19.305099 -28.8902 -962.62598
30.257299 -29.8908 -966.50598
37.3382 -30.065599 -971.06799
-24.262501 -26.7994 -976.35797
-13.4363 -27.184401 -967.82098
-8.6429701 -27.3888 -965.28802
-5.2968602 -27.4942 -964.09003
2.1998401 -27.833099 -961.79401
3.7163301 -27.874399 -961.50098
5.9474802 -28.0191 -961.73798
9.5718298 -28.1672 -961.198
14.5604 -28.077801 -961.52002
15.6868 -28.4907 -961.70203
18.0397 -28.276699 -962.11102
22.7467 -28.587 -963.35901
23.377399 -28.6341 -963.57098
25.309401 -29.2666 -964.34497
26.553301 -29.336 -964.88202
36.456902 -29.7617 -970.02698
-27.5828 -26.254101 -979.52197
-10.1568 -26.7789 -965.66901
8.4150105 -27.598801 -961.159
9.0001402 -27.6082 -961.10498
10.1435 -27.698999 -961.258
12.3887 -27.8144 -961.323
16.301701 -27.7075 -961.75897
19.570299 -28.180401 -962.54102
21.4613 -28.2948 -963.03003
28.3223 -28.727699 -965.961
29.1099 -28.450001 -966.10101
34.1912 -29.064899 -968.90002
35.086201 -28.825399 -969.224
37.729099 -29.305401 -971.047
-35.506001 -25.8214 -998.39697
-14.8961 -26.075399 -968.341
-13.5867 -26.1859 -967.84802
-13.4316 -26.1213 -967.51801
-8.6419296 -26.304501 -965.04999
23.364201 -27.8843 -963.37598
34.280899 -28.192499 -968.46198
37.072399 -28.716299 -970.81299
-35.666401 -24.9963 -998.08002
-34.290199 -25.546101 -993.55298
-19.5487 -25.376101 -971.69598
-18.138599 -25.441999 -970.22101
-14.9057 -25.5504 -968.27301
-8.6398401 -25.789301 -965.005
8.4096298 -26.535999 -961.03802
13.5678 -26.9685 -961.38
16.853701 -26.9594 -961.55902
22.219999 -26.9037 -962.987
31.3304 -27.7862 -966.78497
-33.530602 -24.6593 -991.70502
-19.5476 -24.916401 -971.66901
-13.9247 -25.0564 -967.59802
-9.6452799 -25.2463 -965.33301
5.3707199 -25.883499 -960.758
-32.7145 -24.441601 -989.89099
-32.560902 -24.3995 -988.677
-30.7391 -24.1402 -985.44501
-22.6105 -24.2792 -974.40198
-19.547701 -24.3696 -971.56897
-14.9129 -24.530899 -968.25897
-8.9887104 -24.6513 -964.76202
31.379299 -26.8344 -966.90002
-34.597198 -23.2955 -994.44299
-33.857101 -23.6206 -992.71503
-33.341 -23.335699 -991.57703
-31.737 -23.3016 -986.909
-30.3724 -23.6101 -984.73102
-30.018299 -23.6164 -984.198
-29.607599 -23.621201 -983.40601
-29.1647 -23.6397 -982.64099
-28.710899 -23.643299 -981.96899
-26.1726 -23.693701 -978.49701
-20.492399 -23.843201 -972.35303
-14.4172 -24.025101 -967.88
-9.0017099 -24.1035 -964.63501
-6.8748002 -24.3291 -964.25702
-4.7411299 -24.421801 -963.078
0.29863101 -24.634199 -961.76001
3.6815801 -24.752001 -961.73102
-32.2925 -23.075701 -988.55798
-31.089701 -23.0709 -986.02399
-28.2617 -23.0872 -981.24402
-23.990101 -23.197201 -975.77899
-23.5112 -23.217199 -975.12402
-22.200899 -23.258101 -973.98602
-20.950899 -23.305401 -972.64001
-19.068001 -23.3262 -970.90601
-8.6403399 -23.752899 -964.70599
-4.4488502 -23.8633 -963.05798
-0.26297 -24.0881 -961.89203
1.83245 -24.1633 -961.59998
6.0553298 -24.4112 -961.021
14.4077 -24.8454 -961.10498
-35.597801 -22.216299 -997.849
-33.086399 -22.5063 -990.35699
-31.878099 -22.509701 -987.591
-30.3286 -22.5191 -984.44397
-20.480101 -22.768101 -972.34802
-9.6381502 -23.158899 -964.98297
-3.7037499 -23.378 -962.64001
7.5121498 -23.886999 -961.01599
17.424299 -24.3916 -961.18903
18.627899 -24.557199 -961.49103
20.1374 -24.5413 -961.93701
23.1595 -24.8008 -962.27399
-35.117699 -22.295799 -996.849
-33.742599 -22.271099 -992.32397
-33.0797 -21.9657 -990.375
-31.6793 -22.275101 -986.77899
-30.7043 -22.002899 -985.47998
-19.0389 -22.2724 -970.73499
-18.6126 -22.308701 -970.32501
-13.6759 -22.4653 -967.06403
-13.3949 -22.4753 -966.84601
-9.6342402 -22.6266 -964.88501
-5.2884002 -22.808701 -963.104
5.44168 -23.2806 -961.17798
17.9464 -23.8965 -961.19501
18.9673 -23.948799 -961.414
20.139799 -24.0161 -961.41602
21.9018 -24.1066 -961.823
24.9447 -23.913799 -962.34302
25.900299 -24.324301 -962.68298
-22.753901 -21.5539 -974.27301
-16.348801 -21.834299 -968.617
-15.3641 -21.8545 -967.96301
-13.4105 -21.9384 -966.85699
-9.6376896 -22.069799 -964.87598
-8.6287699 -22.1381 -964.45502
-5.2667499 -22.264601 -962.98499
-3.98102 -22.415001 -962.591
-3.24962 -22.3619 -962.37
2.2941599 -22.581699 -961.23297
9.6444702 -22.5821 -960.65503
17.411501 -23.3538 -961.21997
20.7132 -23.4695 -961.46802
30.0319 -23.704901 -964.466
-34.422699 -21.247801 -994.37598
-23.030001 -21.0728 -974.39203
-19.0135 -21.195299 -970.69397
-13.8948 -21.3806 -967.086
-9.63307 -21.524799 -964.82001
-8.2403002 -21.6866 -964.36499
-3.7541101 -21.789301 -962.42102
0.84210998 -22.004299 -961.37
13.4137 -22.5881 -960.76099
20.0961 -22.9063 -961.34302
23.037901 -23.079901 -961.53802
23.5781 -23.101999 -961.75598
24.657301 -23.1576 -962.10199
27.138201 -23.3197 -962.82599
-34.811298 -20.6968 -995.43402
-18.991501 -20.690001 -970.565
-9.1061401 -21.0443 -964.49597
10.7711 -21.9326 -960.34698
21.417101 -22.160801 -961.35498
29.9939 -23.163799 -964.23999
30.620199 -22.624701 -964.492
-19.9314 -20.0994 -971.24103
-18.536301 -20.145599 -970.09698
-15.8483 -20.2423 -968.091
-14.3812 -20.3151 -967.27301
-12.9446 -20.348 -966.43103
-10.6359 -20.450199 -965.06598
-8.6083097 -20.5438 -964.20898
-0.133362 -20.955299 -960.99103
6.5810099 -21.1957 -960.24103
10.7948 -21.367201 -960.27698
-34.7873 -19.000099 -995.078
-18.986799 -19.635599 -970.45398
-14.0975 -19.7763 -966.99597
-13.3812 -19.846201 -966.56598
-5.36027 -20.1777 -962.44702
1.29694 -20.436501 -960.86401
8.1641197 -20.8323 -960.487
19.9701 -21.364 -961.00201
32.585899 -22.2045 -965.54102
-33.644901 -18.438 -991.83398
-32.3596 -19.0492 -988.164
-31.3752 -18.750401 -986.37799
-24.3986 -18.9489 -975.974
-17.663 -19.141001 -969.03699
-10.392 -19.3528 -964.67902
-9.1068001 -19.5121 -964.29401
-5.3520298 -19.665501 -962.185
5.7811298 -20.1227 -960.22699
19.3589 -20.7906 -960.60101
-32.692902 -17.9084 -988.94299
-32.355 -17.9139 -988.02197
-31.1569 -17.945601 -985.552
-29.533899 -18.5282 -982.68799
-18.8144 -18.443501 -969.98499
-18.485901 -18.626101 -969.96399
-13.7024 -18.6532 -966.37
-5.33565 -19.157 -962.203
5.77808 -19.6229 -960.02399
-33.088001 -17.8915 -989.69501
-31.8524 -17.921301 -987.38
-30.8076 -17.444099 -984.66803
-29.8361 -17.736 -983.33502
-29.0396 -17.7729 -982.09198
-28.591299 -17.7736 -981.33899
-27.855 -18.0793 -980.20697
-26.068199 -17.8599 -977.81201
-20.385401 -18.0445 -971.51501
-18.0151 -18.1071 -969.47101
-14.8423 -18.2418 -967.177
-8.3184204 -18.410101 -963.53601
-7.7842302 -18.532499 -962.87799
4.8201499 -19.071501 -959.802
13.9144 -19.531601 -960.60699
18.8269 -19.7421 -960.20203
24.375999 -20.085699 -961.74701
-31.5798 -17.4282 -986.271
-18.9272 -17.541201 -970.151
-17.994699 -17.5734 -969.396
-14.8136 -17.677 -967.14203
-10.1081 -17.9055 -964.44501
7.53617 -18.6612 -959.883
13.3977 -18.934601 -960.06403
21.2507 -19.317801 -960.75299
23.6978 -19.4261 -961.36102
24.728399 -19.4956 -961.65198
29.9764 -19.402399 -963.87402
-32.513302 -16.577 -989.02899
-29.9084 -16.497499 -983.13501
-28.5704 -16.666201 -981.29401
-18.699499 -16.971001 -969.91498
-13.9326 -17.216801 -966.849
-0.30049199 -17.767799 -960.42798
6.5345402 -18.076799 -959.59399
15.1116 -18.499399 -960.31598
18.8678 -18.681 -960.32599
24.369499 -18.599001 -961.63397
26.740801 -18.7286 -962.41699
-17.979799 -16.509701 -969.34302
-17.5504 -16.520399 -968.85498
-14.3131 -16.644501 -966.87598
-12.8807 -16.708401 -965.83698
-10.1135 -16.786699 -964.08502
-4.7894402 -17.024 -961.60199
-1.3875 -17.190701 -960.51202
0.78522199 -17.2917 -960.26801
7.5055599 -17.564899 -959.617
12.9191 -17.8353 -959.81201
13.9269 -17.914101 -960.04498
16.2703 -17.990499 -960.05103
18.3643 -18.093399 -959.99298
24.752199 -18.4006 -961.72998
29.359301 -18.3496 -963.46698
29.8979 -18.661699 -963.91498
30.6392 -18.404499 -964.09198
33.373699 -19.1003 -965.77197
34.604801 -18.907301 -966.70801
-18.4268 -15.9447 -969.63501
-17.546801 -15.988 -968.95203
-10.6144 -16.253 -964.44501
-5.2968001 -16.4888 -961.953
-0.82555503 -16.695299 -960.79401
0.77931499 -16.7782 -960.22699
1.29804 -16.784201 -959.89099
7.94104 -17.057699 -959.49298
10.8114 -17.2125 -959.56
23.694799 -17.526899 -961.20801
26.667801 -17.985701 -962.383
27.4473 -18.261299 -962.73297
27.941999 -18.0361 -963.034
28.6154 -18.083401 -963.23798
35.420502 -18.135799 -967.138
-18.402901 -15.4202 -969.59698
-15.8282 -15.5225 -967.25403
-13.7848 -15.6088 -966.30298
-10.7586 -15.7784 -964.44397
-5.8134699 -15.9465 -962.00299
16.2878 -16.9261 -959.88098
24.249001 -17.334101 -961.39899
34.178001 -17.518101 -966.38599
34.664799 -17.852301 -966.591
38.963799 -18.0884 -970.09601
-23.3363 -14.7146 -974.26501
-17.591299 -14.9228 -969.151
-8.3654804 -15.3635 -962.935
-3.2718101 -15.5335 -961.104
-0.27270699 -15.6683 -960.164
25.343399 -16.880301 -961.64301
29.899401 -17.083099 -963.50403
-34.7556 -14.1496 -993.53003
-3.36255 -15.0453 -961.19098
-0.28226501 -15.1525 -960.19397
-32.4025 -13.3621 -989.06299
-29.0322 -13.7713 -981.58002
-28.4384 -13.496 -981.01898
-15.8097 -13.9789 -967.02502
-8.1416597 -14.2926 -962.94299
-0.280292 -14.6371 -960.18799
2.60657 -14.7658 -959.48102
10.191 -15.0987 -959.10101
19.614799 -15.5448 -960.37598
-33.120098 -12.7982 -990.46997
-31.9589 -12.8698 -987.74799
-31.574301 -12.8533 -986.91803
-31.1614 -12.877 -986.008
-30.995199 -12.5849 -985.224
-26.3018 -13.0501 -977.922
-8.5657997 -13.7849 -962.92999
-0.27673301 -14.1517 -960.04901
10.7914 -14.6367 -959.13
-34.2598 -12.209 -992.77301
-33.958401 -12.2256 -992.15002
-32.330799 -12.3012 -988.85303
-31.9494 -12.3135 -987.94202
-29.648399 -12.3813 -982.93903
-29.263201 -12.3973 -982.36102
-22.362101 -12.6889 -973.26801
-17.4498 -12.8996 -968.61102
-11.4928 -12.9962 -963.58899
-5.2357702 -13.4312 -961.47101
-3.2244699 -13.5008 -960.86603
24.9769 -14.7791 -961.96802
26.1241 -14.8444 -962.16998
-32.310299 -11.7408 -989.00098
-30.228901 -11.6019 -983.47101
-28.395 -11.8914 -981.01599
-14.3159 -12.4743 -965.617
-13.8729 -12.4918 -965.487
6.0097499 -13.4117 -958.89801
12.3718 -13.3024 -958.922
15.7794 -13.434 -959.59698
17.5214 -13.8961 -959.81403
21.4991 -14.0579 -960.742
25.294399 -14.3654 -962.00598
26.2047 -14.3165 -962.03998
36.096802 -14.7482 -967.22101
-22.7673 -11.5987 -973.388
-17.8515 -11.7895 -968.80902
-14.3517 -11.9756 -965.67499
-11.4945 -12.0767 -963.83801
-9.7174702 -12.1788 -963.51898
-3.6589501 -12.4204 -961.00598
13.3943 -13.1732 -959.06799
19.082899 -13.4304 -960.06299
22.691 -13.265 -960.92102
25.0128 -13.7174 -961.86603
26.867701 -13.82 -962.42999
27.5418 -13.8028 -962.73297
28.2668 -13.538 -962.99402
28.9055 -13.5643 -963.27502
29.5509 -13.9162 -963.85699
34.757999 -14.1653 -966.71002
-18.789301 -11.2263 -969.401
-17.872601 -11.2371 -968.53101
-10.0024 -11.6092 -963.45203
0.869973 -12.1069 -959.82898
12.3788 -12.6109 -958.68701
13.9199 -12.6514 -958.961
15.7613 -12.754 -959.64502
20.2638 -12.9622 -960.22601
20.913099 -12.6684 -960.367
25.0058 -13.1857 -961.68298
26.4536 -12.9422 -962.18903
26.911699 -13.2547 -962.56
-18.381901 -10.7113 -968.61603
-15.2938 -10.8428 -965.99799
-13.8256 -10.9025 -965.18597
-12.488 -10.9485 -964.43903
0.114868 -11.6268 -959.76599
5.3801899 -11.7542 -959.11401
6.0620098 -11.794 -958.70099
7.4962702 -11.8417 -958.737
10.1747 -11.978 -958.71997
10.6343 -11.6685 -958.59003
16.412201 -12.4576 -959.63202
16.8661 -11.9464 -959.49103
22.122 -12.1965 -960.63898
22.7721 -12.5329 -960.74701
27.578899 -12.7539 -962.55499
34.048901 -13.048 -966.19702
36.0453 -13.1472 -966.57202
-18.3013 -10.1961 -968.104
-13.3196 -10.399 -964.76898
-11.0018 -10.5148 -963.66602
-9.9819298 -10.5519 -963.32501
15.7801 -11.7095 -959.30402
25.245501 -11.789 -961.55499
28.8971 -12.2691 -963.21997
29.6115 -12.0083 -963.435
-19.3447 -9.6092796 -968.99402
-14.7778 -9.8073702 -965.71399
-14.2778 -9.8312197 -965.255
-10.2861 -10.0207 -963.336
-0.726547 -10.4246 -959.94897
23.3887 -11.4816 -961.02197
27.5791 -11.6771 -962.64301
32.257099 -12.0961 -964.76703
34.615398 -11.9665 -965.61298
-33.122799 -8.79494 -992.00598
-23.3277 -8.9129105 -973.03699
-22.003 -8.9963102 -971.69098
-18.873199 -9.12111 -968.68701
-8.45189 -9.5932703 -962.51599
1.41108 -10.0388 -959.06403
5.8343501 -10.2869 -958.685
25.6082 -11.1071 -961.72601
-32.7822 -8.2602596 -991.06897
-26.5746 -8.2388697 -977.56598
-19.332199 -8.5757504 -969.21503
-18.3864 -8.62148 -968.33002
-9.9661198 -8.9989405 -963.45398
1.71191 -9.5234003 -959.19702
19.124901 -10.3099 -959.86798
-33.712502 -7.37326 -994.336
-32.193199 -7.7075701 -988.96698
-31.490299 -7.7623501 -987.099
-30.8932 -7.5236402 -986.24103
-30.497299 -7.5408201 -985.20599
-28.4018 -7.93677 -980.87299
-14.2132 -8.3263903 -965.29999
-10.4252 -8.4785099 -963.41199
-7.53721 -8.6027899 -961.948
-0.150089 -8.9531603 -959.46899
19.139299 -9.7964096 -959.60101
20.2854 -9.8242302 -959.78198
-33.396999 -6.8576899 -993.43402
-33.099701 -6.85887 -992.36603
-28.6061 -7.1036301 -981.72198
-27.7556 -7.1530199 -980.27502
-24.127001 -7.3295002 -974.20203
-14.696 -7.7753301 -965.59198
19.697201 -9.3216105 -959.66901
-21.0751 -6.9454198 -971.29199
-15.1802 -7.1967702 -965.96899
-10.3984 -7.4497299 -963.34198
-8.4123297 -7.5113101 -962.47302
0.40384901 -7.9153199 -959.28198
6.3663301 -8.2313805 -958.36102
19.701401 -8.7521 -959.72803
23.989401 -8.9214497 -960.90802
27.715 -8.7325401 -962.203
30.2141 -9.1916103 -963.46301
-31.971901 -5.8249698 -989.29901
-22.6471 -6.3151898 -972.93298
-18.1047 -6.4809799 -968.323
-14.6201 -6.7086802 -965.76202
-9.8879995 -6.91295 -963.17297
-8.8751802 -6.98212 -962.59302
-7.5819702 -7.0988202 -962.14099
4.9709301 -7.5141001 -958.66199
15.8402 -8.0745497 -959.03802
35.399601 -8.5535402 -965.59198
41.815399 -9.1268101 -970.20001
-29.6796 -5.4250798 -983.91302
-14.5733 -6.1568699 -965.82098
-8.868 -6.4538002 -962.75299
3.80934 -7.0552702 -958.87701
11.1799 -7.4510698 -958.07001
16.4447 -7.5580502 -958.98602
21.5839 -7.7663398 -960.16199
22.180599 -7.4716301 -960.133
23.457899 -7.8340902 -960.383
24.663799 -7.5796399 -960.90503
25.3962 -8.1360302 -961.297
28.8962 -7.7535 -962.52399
36.212002 -8.0717602 -966.10999
-23.058201 -5.2153001 -973.41998
-17.6724 -5.4932699 -968.26898
-12.3878 -5.8092098 -964.492
-8.3627501 -5.93046 -962.56097
-6.0878 -6.0668502 -961.48401
9.7578897 -6.7508998 -958.10101
12.5138 -6.87043 -958.22302
13.0512 -6.8727598 -958.39301
22.808201 -6.9821601 -960.28699
24.0404 -7.3454099 -960.51099
25.3631 -7.0862699 -961.15399
30.975 -7.3182302 -963.50598
36.738201 -7.84793 -966.599
-19.5571 -4.8769498 -969.76001
-18.0259 -4.9523702 -968.32599
-14.5203 -5.1240902 -965.87701
1.0382299 -5.82127 -959.216
1.5513099 -5.8446999 -958.599
13.6021 -6.3791599 -958.39697
16.4678 -6.4904499 -958.82898
25.0973 -6.83921 -960.96301
28.956301 -7.2432199 -962.49597
34.6548 -7.2321601 -965.23499
35.473801 -6.9435401 -965.526
-14.5092 -4.58636 -965.96802
-4.9784198 -5.0263801 -960.71997
-3.19714 -5.1837802 -960.211
21.629601 -6.1705599 -959.72699
22.2712 -6.3899102 -960.14203
28.2481 -6.41466 -961.70599
-28.8181 -3.3438101 -982.58398
-18.553499 -3.87446 -968.91699
-14.0127 -4.1064601 -965.591
-12.5966 -4.1631699 -964.59698
-4.99369 -4.52672 -960.85602
-0.016578401 -4.7717299 -959.388
5.09795 -4.9456201 -958.29199
19.778 -5.6038699 -959.49902
37.896801 -6.3111801 -966.70001
-31.507999 -2.35496 -988.521
-31.0021 -2.6459301 -987.66602
-28.454201 -3.1831701 -981.75
-12.5661 -3.65659 -964.49799
-9.7976303 -3.80071 -963.07898
-8.7561703 -3.85782 -962.341
-3.4361401 -4.0910902 -960.336
2.5187199 -4.36093 -958.90802
-31.768299 -1.78335 -989.646
-29.992599 -2.4916799 -984.867
-29.5291 -2.5116899 -984.10199
-29.0753 -2.5567501 -983.435
-17.875099 -2.72878 -968.32202
-12.1402 -3.15834 -964.40302
-10.2535 -3.2608199 -963.117
7.7996402 -4.1012502 -958.08801
9.2872801 -4.1714201 -958.51001
26.360001 -4.8540201 -961.125
-30.1497 -1.6502399 -985.65997
-30.0203 -1.92471 -984.85901
-25.134399 -1.97271 -976.216
-19.9214 -2.2548001 -970.40503
-17.3564 -2.2746401 -967.96198
-13.2778 -2.5067101 -964.90302
-10.7368 -2.72246 -963.33002
-9.7405796 -2.7817099 -962.94501
-8.7553501 -2.8285699 -962.586
-31.2897 -0.781708 -988.90698
-30.7206 -1.3706599 -986.745
-29.4167 -1.1502399 -984.44202
-25.1129 -1.46301 -976.29199
-22.875999 -1.5805399 -973.32501
-21.9813 -1.60967 -972.37299
-18.9338 -1.79527 -969.25598
-9.7304296 -2.2650001 -963.03998
15.9608 -3.3596201 -958.664
34.932301 -3.7455499 -965.10602
-22.675501 -0.94915801 -973.09003
-18.9244 -1.27351 -969.33698
-18.4508 -1.30373 -968.99701
-14.8742 -1.48592 -966.08398
-13.9131 -1.51493 -965.58301
-13.404 -1.55241 -964.99902
-9.2015696 -1.7599 -962.672
0.36853001 -2.23212 -959.34998
3.16137 -2.2427399 -958.841
16.574499 -2.8729401 -958.65302
22.3825 -2.7455101 -959.93903
24.733999 -2.8155401 -960.51898
25.405199 -2.85811 -960.79602
26.684 -3.42536 -961.39203
27.181601 -3.44047 -961.51099
28.422501 -3.3380799 -962.05798
31.9813 -3.1361799 -963.966
32.530499 -3.1533101 -964.177
35.553799 -3.5776401 -965.513
-18.429001 -0.75750202 -968.96198
-10.6819 -1.14131 -963.242
-8.6681099 -1.24419 -962.37299
-7.7329502 -1.30946 -961.979
0.18325099 -1.65201 -959.52197
1.27206 -1.72139 -959.41101
9.3751497 -2.0829999 -958.42297
15.4081 -2.2918999 -958.44397
19.517599 -2.6382401 -959.22302
21.2316 -2.1904299 -959.59497
23.600901 -2.59587 -960.34198
24.1642 -2.61531 -960.31598
34.245399 -2.7021101 -964.59802
36.3367 -3.07795 -966.13702
-22.3521 -0.0056659402 -972.87
-21.899 -0.020373501 -972.388
-13.3808 -0.49954 -965.20898
-2.81884 -1.0215501 -959.94598
0.55071998 -1.2586401 -959.50702
17.184299 -1.81552 -958.70898
25.827 -2.1364701 -960.94
26.487101 -2.18401 -961.31403
27.116301 -2.2054901 -961.74402
29.1432 -2.27702 -962.12799
29.7901 -2.2911401 -962.55103
30.473499 -1.9935499 -962.93103
31.211201 -2.0416 -963.36902
33.4776 -2.64744 -964.07501
34.8451 -2.48031 -965.021
-22.7563 0.56511903 -973.35303
-18.842699 0.327806 -969.39502
-17.0079 0.22357 -967.79303
-13.3418 0.063186899 -965.06702
5.1897602 -0.96291399 -958.61902
5.8463702 -0.81772602 -958.68201
16.0292 -1.2575099 -958.64502
20.162901 -1.6264 -959.34399
22.4373 -1.1656801 -959.854
25.267099 -1.61885 -960.73199
27.3234 -1.35225 -961.52301
27.9895 -1.37148 -961.85602
29.163601 -1.7379 -962.02899
-18.342199 0.82983702 -968.974
-13.3182 0.56820703 -965.01501
21.1623 -0.91280001 -959.539
29.8176 -0.86115998 -962.53699
34.897099 -1.40201 -965.09497
-14.7463 1.12906 -965.974
-13.3017 1.0723 -965.06702
1.33026 0.37919199 -959.45099
25.8948 -0.60722399 -960.89398
-16.8393 1.93575 -967.39801
-13.7808 1.62655 -965.53003
-8.73456 1.35236 -962.54901
31.609699 -0.26603001 -963.586
-21.7535 2.5957699 -972.48602
-14.2079 2.1635399 -965.62201
-9.0562296 1.88416 -962.68597
-7.5602002 1.80567 -961.85199
-4.7203202 1.67392 -960.65601
-3.12433 1.62612 -960.367
5.3846402 1.26464 -958.50598
7.35748 1.1732301 -958.26801
33.2257 0.120163 -964.20599
-30.2258 3.4869399 -987.78101
-23.9855 3.22645 -975.37402
-12.7451 2.5776 -964.823
-7.10495 2.2885301 -961.89398
-4.6578102 2.1895299 -960.84601
31.671499 0.77578402 -963.69202
32.928001 0.73521602 -963.87799
-14.1621 3.21035 -965.70398
-13.6815 3.1754401 -965.44098
-12.7025 3.1304801 -964.74701
-9.4991798 2.9584899 -962.84802
-7.4625301 2.8743 -961.88702
0.33978599 2.4891801 -959.35101
2.4051299 2.3913901 -958.815
6.6289101 2.1806099 -958.24701
23.764601 1.5709701 -960.11603
26.9219 1.32348 -961.31799
28.6057 1.41225 -961.83502
32.152199 1.66491 -963.84198
-30.126801 4.5303202 -987.97803
-17.251301 3.9110501 -968.24597
-13.9028 3.7218599 -965.55798
-2.5694799 3.1537299 -960.22699
2.3050499 2.86272 -959.08301
19.4893 2.24248 -958.98102
21.359301 2.5122099 -959.38098
24.2913 2.4309499 -960.15198
24.934099 2.4212201 -960.35199
26.1385 1.85395 -960.80298
30.678101 2.22927 -962.901
34.341099 1.77544 -964.57703
-21.6082 4.6947298 -972.82898
-17.6789 4.4573498 -968.58502
-14.1094 4.2764101 -965.79797
-7.8959198 3.9512501 -962.224
5.4924302 3.3533499 -958.60199
6.0110402 3.30283 -958.32098
16.2034 2.91012 -958.34302
20.066999 2.7548001 -959.05701
22.5737 3.01284 -959.71698
23.8106 2.63954 -960.10797
26.032101 2.56863 -960.84802
26.668699 2.5655799 -961.14697
30.003201 2.45736 -962.54303
-19.046801 5.0802398 -969.87903
-14.5563 4.8285799 -966.15002
-12.6363 4.71105 -964.81799
2.00194 4.0180302 -958.84998
7.0722399 3.79739 -958.39899
8.1965303 4.0981898 -958.37598
13.4538 3.5364799 -958.427
15.6268 3.45419 -958.26501
21.3354 3.2516999 -959.21002
24.3386 3.48295 -960.12903
29.3554 3.0013299 -962.245
37.304401 2.7862999 -966.73401
-17.6257 5.507 -968.68597
-16.717501 5.4749999 -967.89001
-13.578 5.2901702 -965.52698
-12.6108 5.2248402 -964.91498
-7.3514099 4.9822402 -962.25098
6.6781702 4.3432798 -958.68201
18.5574 3.8980899 -958.914
22.085501 4.09832 -959.64203
23.8559 3.68994 -960.23297
26.059799 3.6419599 -961.08398
28.689501 3.54035 -962.00598
30.656401 3.4876101 -963.15198
-13.9828 5.8348598 -965.89899
-12.1116 5.7383199 -964.66199
-9.2873402 5.5890498 -963.31403
-8.7744799 5.5657201 -962.88599
20.4559 4.1531801 -959.30103
21.403601 4.3190398 -959.17499
24.439699 4.2151899 -960.26398
28.115101 4.4671001 -961.63501
30.6915 4.3909101 -962.79498
36.252701 4.2459602 -966.35101
-13.602 6.3919401 -966.112
-12.5052 6.2476802 -965.28802
-12.119 6.3006201 -965.20697
-9.2513304 6.0994201 -963.33197
0.50380301 5.6150799 -959.40503
7.18325 5.3298502 -958.09802
10.8449 5.17805 -958.06799
32.237499 4.3702002 -963.78601
-29.502701 8.3227901 -987.71802
-27.985001 7.8878999 -984.21802
-17.451401 7.08603 -969.19299
-13.8761 6.8701701 -966.20398
-12.4356 6.7933698 -965.22998
-9.2137899 6.6156902 -963.29102
6.7559199 5.836 -958.43799
-26.3169 8.23347 -980.94702
-25.913799 8.2044601 -980.32098
-19.275999 7.7108498 -971.23102
-12.6589 7.45786 -965.466
-11.9492 7.2648501 -964.867
-9.1923103 7.1147599 -963.37402
19.667999 5.8871398 -958.95502
20.8405 5.8527002 -959.14899
-17.834499 8.1589603 -969.71503
-16.8993 8.1036701 -968.896
-13.326 7.8793702 -965.99298
-11.921 7.7807999 -964.98798
-9.1496 7.6420398 -963.31799
-2.36339 7.2785602 -960.211
7.0570698 6.9102201 -958.23297
19.6922 6.40694 -958.80499
26.569201 6.1556201 -961.11902
32.2994 5.9778099 -963.784
-13.0774 8.4680595 -965.84698
-9.1328297 8.1833801 -963.30603
2.17591 7.6241102 -959.25
3.5715201 7.5397401 -958.68402
24.582399 6.8204398 -960.15399
-28.136 10.0588 -985.66602
-26.710899 9.56812 -982.15503
-23.8563 9.64849 -977.29303
-12.7775 8.89256 -965.66699
-10.5976 8.7731104 -964.15698
-6.3165998 8.5393896 -962.19501
-2.0504799 8.2907696 -960.16602
0.618186 8.2001305 -959.448
4.0686498 8.0723305 -958.84802
8.7005596 8.2456102 -958.01099
16.427401 7.5731401 -958.508
18.6642 7.8382702 -958.71301
19.754299 7.4713402 -959.151
20.5616 7.2748098 -959.26501
21.535801 7.41289 -959.39099
26.618299 7.0717902 -961.16602
27.582001 7.24189 -961.49799
29.5863 7.2024899 -962.49597
30.3179 7.4950199 -962.73602
33.611 7.4303899 -964.53601
35.003399 7.4191499 -965.47198
35.661999 7.4095802 -965.896
-17.253401 9.7093897 -969.41101
-16.392799 9.66714 -968.68103
-12.264 9.4209099 -965.38098
-10.0402 9.28193 -963.97601
-8.0622597 9.1751699 -962.79999
-7.5756898 9.1485205 -962.672
0.66116202 8.7481203 -959.40002
2.2286201 8.6269703 -959.073
14.1682 8.1872702 -958.16699
15.8557 8.1046495 -958.39899
19.2743 8.01688 -958.77197
23.432501 7.8857198 -960.03601
24.7775 8.1500702 -960.49799
26.9494 7.7729602 -961.15002
29.048 8.0385904 -962.13501
32.701698 7.6378698 -963.81799
37.130001 7.5580301 -967.06702
-13.1983 9.9786797 -966.09998
-12.2314 9.9276505 -965.57703
-8.5236797 9.7317696 -963.16602
8.3614197 8.9110298 -958.125
13.1823 9.1127996 -958.099
22.211 8.4381504 -959.62299
29.6812 8.5498505 -962.39801
30.315599 8.2266502 -962.69202
30.919201 8.5369196 -962.94098
32.341099 8.4920301 -963.75702
36.455399 8.4324503 -966.47498
39.925701 8.0704498 -969.21997
