# .PCD v0.7 - Point Cloud Data file format
VERSION 0.7
FIELDS x y z
SIZE 4 4 4
TYPE F F F
COUNT 1 1 1
WIDTH 1756
HEIGHT 1
VIEWPOINT 0 0 0 1 0 0 0
POINTS 1756
DATA ascii
26.0637 -2.2227199 -1044.41
25.5207 -1.87808 -1044.83
24.9874 -1.60367 -1045.08
24.3043 -1.5103101 -1045.11
23.6313 -1.37042 -1045.12
23.0504 -1.13162 -1045.37
22.4405 -1.00174 -1045.41
21.9062 -0.78607202 -1045.63
20.263901 -0.206635 -1046.04
19.2952 -0.102051 -1045.8199
14.6702 1.15292 -1046.6899
14.1009 1.26385 -1046.46
13.0028 1.46732 -1046.75
11.7974 1.55676 -1046.53
11.2409 1.63736 -1046.54
10.8044 1.87518 -1046.77
10.4429 1.91418 -1046.39
8.0909996 2.1803601 -1046.5
6.9605699 2.3413701 -1046.37
5.4295702 2.61957 -1046.41
4.5170898 2.85742 -1046.0699
4.03229 2.9339001 -1045.99
1.7674 2.9198 -1045.8199
-0.0576782 3.2514601 -1045.1801
-11.0988 3.46136 -1041.63
-16.853001 2.50769 -1038.4
33.506302 -4.6248202 -1041.4399
32.799599 -4.4853201 -1041.5
31.6758 -4.0485201 -1042.12
31.1066 -3.7824399 -1042.35
30.4221 -3.4546199 -1042.6899
29.7973 -3.10571 -1042.98
29.111601 -2.87219 -1043.27
28.582399 -2.45309 -1043.7
27.897699 -2.3982799 -1043.62
26.1408 -1.71558 -1044.28
24.3468 -1.05869 -1044.85
23.798201 -0.76748699 -1045.14
23.089399 -0.70877099 -1045.04
22.5261 -0.46771199 -1045.3101
21.940201 -0.302917 -1045.38
20.899099 0.107086 -1045.8
19.7278 0.376526 -1045.74
19.1924 0.53439301 -1045.83
18.571301 0.86917102 -1046.28
17.920601 1.00729 -1046.38
17.491699 1.03049 -1046.22
16.729099 1.26666 -1046.48
15.2413 1.47473 -1046.23
14.6866 1.60571 -1046.28
14.1651 1.71082 -1046.28
13.6581 1.8069201 -1046.25
12.4713 2.00964 -1046.48
10.8403 2.33517 -1046.51
9.8706703 2.5656099 -1046.29
8.2108803 2.8610201 -1046.29
7.3298302 2.8782001 -1046.0601
5.55621 3.2793601 -1046.11
2.8789101 3.3009 -1045.77
1.4357899 3.6626899 -1045.45
-1.13806 3.8475001 -1044.95
-3.7105999 3.8248601 -1044.54
-9.6112404 4.0678101 -1042.12
-11.995 3.89117 -1041.03
-13.3514 3.3673699 -1040.03
-16.8687 3.0890501 -1038.21
32.8993 -4.0546298 -1041.27
31.8515 -3.30212 -1042.12
31.1595 -3.1795299 -1042.25
30.506001 -2.8518701 -1042.55
29.2346 -2.4535201 -1043.02
28.5853 -2.08847 -1043.29
27.9538 -1.92764 -1043.4399
27.474001 -1.49506 -1044
26.742001 -1.5700999 -1043.75
26.224701 -1.19879 -1044.16
25.6833 -0.89297497 -1044.5
25.081301 -0.69012499 -1044.67
24.465099 -0.475189 -1044.85
23.869101 -0.30743399 -1044.97
23.061701 -0.37332201 -1044.6801
22.117399 0.35269201 -1045.51
21.483 0.36908001 -1045.41
20.8927 0.516357 -1045.4
20.378201 0.69378698 -1045.65
19.8002 0.83929402 -1045.74
19.186701 1.03455 -1045.85
17.907301 1.39606 -1046.15
17.391001 1.68204 -1046.42
16.827101 1.8362401 -1046.49
15.2479 1.95374 -1046.22
14.8193 2.1764801 -1046.4301
13.7269 2.3927901 -1046.48
10.8589 2.71661 -1046.23
9.3720999 3.1006501 -1046.35
8.8506498 3.23523 -1046.4301
7.10883 3.3306 -1046.1
5.5472398 3.5838001 -1046.05
4.6599102 3.7767301 -1045.72
4.10956 3.8651099 -1046.05
2.96033 3.7961099 -1045.63
1.91394 4.3077698 -1045.2
1.46823 4.0899 -1045.6
-0.55941802 4.1709299 -1045.12
-3.5636599 4.7969699 -1044.24
-4.5878901 4.4254198 -1043.73
-7.1332102 4.50702 -1042.73
-8.5025597 4.2923598 -1042.22
33.7994 -3.85672 -1040.91
33.044998 -3.4156799 -1041.35
31.913 -2.8101799 -1042.02
31.2729 -2.6290901 -1042.16
30.4799 -2.5040901 -1042.15
29.934 -2.15576 -1042.63
28.737801 -1.70749 -1043
28.0261 -1.4655499 -1043.23
27.4158 -1.20715 -1043.46
26.834801 -1.00919 -1043.67
26.2458 -0.77539098 -1043.86
25.7283 -0.41586301 -1044.3
25.203199 -0.156891 -1044.6
24.454 -0.102997 -1044.46
23.916901 0.148041 -1044.74
23.3241 0.26177999 -1044.6801
22.724899 0.48840299 -1044.8199
21.513399 0.78149402 -1045.13
21.004101 0.996216 -1045.3199
20.4758 1.21671 -1045.54
19.791901 1.43683 -1045.53
19.2327 1.64493 -1045.71
18.509899 1.65311 -1045.75
18.098101 2.1244199 -1046.34
16.379101 2.4418299 -1046.38
15.2676 2.35254 -1045.96
14.8308 2.5705299 -1046.16
13.5998 2.93243 -1046.0601
10.9386 3.2332201 -1046.12
9.8997803 3.3752401 -1046.0699
8.3003197 3.6408701 -1046
5.6393399 4.4941702 -1045.63
4.5673499 4.4896202 -1045.33
4.2278399 4.3496699 -1045.46
1.48709 4.4977102 -1045.37
0.463287 4.9309402 -1044.83
-0.93905598 5.1326299 -1044.6899
-2.01227 5.0124202 -1044.53
-4.47015 4.8931599 -1043.5
-6.9349999 4.8242502 -1042.61
-16.673599 4.13345 -1038.05
-26.0417 1.41187 -1030.45
33.837601 -3.3689301 -1040.73
33.064301 -3.0589299 -1041.02
32.4244 -2.7827101 -1041.29
31.837799 -2.5045199 -1041.55
31.3256 -2.2995901 -1041.74
29.954901 -1.75928 -1042.3
28.1646 -0.88641399 -1043.24
27.568501 -0.75912499 -1043.25
26.9632 -0.46902499 -1043.6
26.396601 -0.203583 -1043.89
25.740499 -0.046050999 -1043.97
25.133499 0.12713601 -1044.0601
24.642 0.50778198 -1044.5699
23.973101 0.63690197 -1044.5601
22.783501 1.03223 -1044.92
22.123301 1.0922199 -1044.84
21.5993 1.27582 -1045.04
21.108101 1.59079 -1045.3199
20.497999 1.77142 -1045.4301
19.253201 2.0220599 -1045.59
18.614401 2.43033 -1045.79
18.1124 2.4816 -1046.02
17.514601 2.63202 -1046.0601
16.982901 2.82864 -1046.22
15.3323 2.87497 -1045.84
14.8392 3.1301 -1045.76
13.3506 3.3569901 -1045.6899
12.6104 3.3534501 -1045.87
10.9904 3.6775501 -1045.91
9.4190998 3.91943 -1045.86
8.9942598 4.17978 -1045.7
7.3025498 4.7333698 -1045.5601
6.7718501 4.4327998 -1045.87
5.6789899 4.9438801 -1045.41
2.93469 4.8287702 -1044.8
1.93417 5.1138601 -1044.63
-3.11292 5.43503 -1043.62
-4.3350201 5.3368802 -1043.26
-5.8886399 5.64148 -1043.03
-6.90097 5.6047702 -1042.63
-9.4650297 5.3938298 -1041.52
-10.3895 5.3682899 -1041.14
-11.9512 5.1863999 -1040.48
-13.285 4.9453402 -1039.63
42.692799 -7.9792199 -1034.36
33.078701 -2.6875 -1040.64
32.603199 -2.2786601 -1041.12
31.9175 -2.0868499 -1041.24
31.3685 -1.7305599 -1041.6899
30.6929 -1.4670399 -1041.95
29.480499 -0.99124098 -1042.35
28.858 -0.70886201 -1042.6
28.124901 -0.59002697 -1042.78
27.5658 -0.26132199 -1043.15
27.000401 -0.036010701 -1043.36
25.815701 0.468445 -1043.8101
25.2234 0.62353498 -1043.9399
24.6087 0.82818598 -1044.1
23.471399 1.38824 -1044.64
22.776199 1.3844 -1044.54
22.2672 1.7066 -1044.86
21.7306 1.91342 -1044.76
21.1336 2.21649 -1045.36
19.959 2.47421 -1045.25
19.351999 2.66962 -1045.67
18.6462 2.95471 -1045.61
18.2005 2.97861 -1045.8199
17.603201 3.15997 -1045.95
17.0546 3.3008101 -1046.03
13.8083 4.03967 -1045.38
12.7523 4.3221998 -1045.55
11.5973 4.0773001 -1045.76
11.0706 4.5513601 -1045.45
10.0953 4.8630099 -1045.6
8.5030499 4.8229098 -1045.5
5.89819 5.20505 -1045.33
4.7297702 5.5288401 -1045.12
3.2329099 5.5496202 -1045.02
2.30615 5.5513301 -1044.74
1.61816 5.7341599 -1044.83
-3.0073199 6.0102801 -1043.54
-4.3017602 5.8709998 -1043.09
-5.8604102 5.9024 -1042.66
-6.8364902 5.8745098 -1042.27
-8.3450003 6.05194 -1041.95
-9.3435698 5.8378 -1041.36
-10.7399 5.92377 -1040.91
-11.7193 5.8210402 -1040.4301
-16.6154 5.0070801 -1037.5
-25.870199 2.4393899 -1029.96
-26.1668 2.1629901 -1029.42
42.9655 -7.4603601 -1034.39
33.8703 -2.35147 -1040.3
33.176601 -2.1965301 -1040.4301
32.046799 -1.55402 -1041.1801
31.505899 -1.31903 -1041.27
30.820999 -1.00299 -1041.59
28.9247 -0.062530503 -1042.79
28.2932 0.078430198 -1042.86
27.6194 0.353607 -1042.9
27.1222 0.52673298 -1043.27
26.4834 0.71636999 -1043.39
25.882799 0.97030598 -1043.41
25.313601 1.17404 -1043.79
24.7314 1.4620399 -1044.11
24.049101 1.48587 -1044.05
22.8354 2.0976601 -1044.36
21.698601 2.4730799 -1044.99
21.028601 2.5413201 -1044.97
20.540899 2.82217 -1045.25
19.973 3.00632 -1045.4
19.387501 3.2439301 -1045.23
18.8255 3.31165 -1045.6
18.257999 3.4238601 -1045.61
17.673401 3.68167 -1045.46
17.098499 3.6890299 -1045.72
16.712299 3.8427999 -1045.4
15.055 4.0606699 -1045.74
12.7537 4.8091402 -1045.3101
12.3267 4.6528301 -1045.39
11.3228 4.8067598 -1045.3199
10.207 5.0629001 -1045.35
8.5031996 5.5521202 -1045.27
6.9096699 5.42804 -1045.58
5.9588599 5.7258301 -1045.14
4.3956599 6.2637901 -1045.1801
3.25418 6.2845201 -1044.92
-4.3857999 6.5531001 -1042.98
-5.7835999 6.5792799 -1042.59
-6.8250098 6.4370399 -1042.14
-8.2982798 6.5196199 -1041.71
-9.3429298 6.3865099 -1041.17
-10.7922 6.28339 -1040.5699
-11.597 6.0771799 -1039.9301
-13.4219 6.2142901 -1039.5699
-14.1123 5.9006 -1038.76
42.741699 -6.9130902 -1034.08
33.310799 -1.57559 -1040.33
32.0439 -0.989227 -1040.89
31.463301 -0.83325201 -1041.1899
30.120199 -0.38967901 -1041.5601
29.600599 0.12835699 -1042.23
28.9342 0.30865499 -1042.34
28.3832 0.57986498 -1042.6801
27.7379 0.810669 -1042.64
27.0331 0.77337599 -1042.64
26.6467 1.20514 -1042.9301
25.976601 1.44183 -1043.47
24.7901 1.85559 -1043.8
24.2068 2.10745 -1044.03
23.531401 2.37006 -1043.9301
22.9254 2.6189899 -1044.2
22.2626 2.6493199 -1044.39
21.652599 2.90659 -1044.7
20.566 3.25931 -1044.98
20.0739 3.5471799 -1045.27
19.5126 3.7226901 -1045.41
18.837999 3.7057199 -1045.23
18.222 3.80481 -1045.1899
13.9507 4.7365699 -1045.46
12.3333 5.1325402 -1045.63
8.6096802 6.2347102 -1045.3
0.65393102 7.32407 -1044.77
-0.24231 7.0844102 -1044.35
-0.929443 7.2523799 -1044.41
-7.7641602 7.0040302 -1041.59
-8.1678495 6.8638301 -1041.34
-9.2620802 6.9159899 -1040.99
-10.5966 6.90341 -1040.5
-11.6279 6.79739 -1039.98
-12.6311 6.6681499 -1039.4399
-13.0613 6.4891701 -1039.04
34.264599 -1.49368 -1039.6899
33.3297 -1.16299 -1040.0601
31.505501 -0.23831201 -1040.96
30.934 -0.0028381301 -1041.1899
30.299101 0.28488201 -1041.62
29.646099 0.57061797 -1041.75
29.027399 0.873932 -1042.21
27.742399 1.17661 -1042.4301
27.2003 1.44714 -1042.65
26.661501 1.75412 -1043.04
25.8757 2.0543499 -1043.14
25.314301 2.27332 -1043.26
24.2561 2.5875499 -1043.76
23.6593 2.8268099 -1043.9399
22.371 3.2641001 -1044.38
21.7887 3.5274999 -1044.65
21.2384 3.6744399 -1044.71
20.7264 3.8931601 -1044.5699
20.1161 4.0307298 -1044.97
19.5352 4.12534 -1044.99
18.9515 4.3158598 -1045.11
18.3908 4.4926801 -1045.24
17.218 4.70258 -1045.29
16.8174 4.8782701 -1045.01
16.165501 4.9583998 -1045.4
15.6144 5.2291899 -1045.24
15.0077 5.4460402 -1045.37
13.4362 5.5318599 -1045.55
12.3546 5.7404799 -1045.54
11.7668 5.7766399 -1045.4399
11.2421 5.8066101 -1045.36
4.8964801 6.7881799 -1045.12
3.8718901 6.9702101 -1045.11
3.3518701 7.5812101 -1044.95
2.21329 7.5993299 -1044.63
1.77481 7.76968 -1044.77
0.79437298 7.5874 -1044.48
-0.72338903 7.9717398 -1044.3101
-6.6610699 7.4454999 -1041.75
-8.3282499 7.5383 -1041.39
-9.2059603 7.4825401 -1040.79
-10.6866 7.3418298 -1040.24
42.278 -5.1767001 -1034.5
34.189201 -0.77023298 -1039.77
33.4795 -0.50329602 -1040.08
32.955101 -0.164886 -1040.45
32.285702 0.038055401 -1040.5601
31.657 0.263367 -1040.84
30.9951 0.57467699 -1041.16
30.377899 0.85412598 -1041.4301
29.6868 1.05136 -1041.59
29.0905 1.33771 -1041.96
28.509899 1.55188 -1042.12
27.813101 1.81546 -1042.28
24.9158 2.8687999 -1043.11
24.317101 3.0966499 -1043.54
23.796499 3.4733 -1043.97
23.055901 3.50613 -1043.87
22.4345 3.8103001 -1044.22
21.236799 4.2664199 -1044.4
20.196699 4.5043898 -1044.74
19.0135 4.77179 -1044.9
18.400801 4.8348699 -1044.8
17.4694 5.1626 -1044.76
16.7917 5.3540301 -1045.1801
16.3111 5.4808998 -1044.92
15.73 5.6413898 -1045.02
15.1927 5.7982798 -1045.42
14.523 6.0595398 -1045.3101
13.9666 6.1500502 -1045.3199
13.4624 6.17975 -1045.61
11.8354 6.4758902 -1045.59
11.2498 6.4281301 -1045.37
9.7320604 6.7734399 -1045.48
-1.77905 8.2109699 -1043.74
-8.27209 8.0314302 -1041.24
41.6194 -4.2390099 -1034.8
33.037498 0.33203101 -1040.1899
31.633801 0.71447802 -1040.55
30.961201 1.00458 -1040.88
30.3431 1.29196 -1041.13
29.844101 1.44525 -1041.29
29.151899 1.8042001 -1041.67
28.018 2.38885 -1042.26
27.3957 2.5448 -1042.37
26.847799 2.8501599 -1042.6899
26.192101 3.00107 -1042.77
25.6616 3.27194 -1043.0601
25.0135 3.4568801 -1043.23
23.6803 3.84109 -1043.4399
23.253099 4.1789899 -1043.9399
22.661301 4.2161298 -1043.79
21.8284 4.37534 -1043.92
21.407301 4.7189898 -1044.36
20.3057 5.0885301 -1044.61
19.745199 5.22894 -1044.6899
19.022699 5.3499498 -1044.5601
17.468201 5.6682701 -1044.64
16.280899 6.0121799 -1044.79
15.8134 6.11731 -1045.08
15.1782 6.14288 -1044.9399
13.5329 6.7424302 -1045.48
13.0392 6.7968798 -1045.11
11.2965 7.12292 -1045.5
9.7479897 7.3724999 -1045.39
8.6141701 7.36374 -1045.11
5.8955402 7.72119 -1044.89
3.4361601 8.2190199 -1044.89
2.2490201 8.10287 -1044.41
1.8704799 8.4926796 -1044.38
0.77566499 8.3147898 -1044.3101
-0.79229701 8.7244902 -1043.98
-1.68225 8.8261099 -1043.4
-2.7641599 8.8159504 -1043.08
-12.8793 7.95822 -1038.5699
33.02 0.706635 -1039.78
32.310299 0.868164 -1040.0699
31.857599 1.3407 -1040.53
31.083 1.41275 -1040.46
30.458401 1.69672 -1040.78
29.887699 2.1119399 -1041.26
29.1945 2.2726099 -1041.37
28.679399 2.6056499 -1041.74
28.0611 2.85217 -1041.99
26.821899 3.1514599 -1042.22
26.2663 3.4653001 -1042.52
25.5762 3.4914601 -1042.45
25.0343 3.7526901 -1042.73
23.8741 4.3002 -1043.29
23.277599 4.5459599 -1043.5601
22.6446 4.8604698 -1043.9
22.083799 4.9119601 -1043.78
21.514099 5.2631202 -1044.22
20.368799 5.5402498 -1044.4
19.791 5.6823101 -1044.45
19.1933 5.80511 -1044.49
18.610901 5.9129901 -1044.5699
18.030199 6.1033301 -1044.66
17.429001 6.1347699 -1044.58
16.873301 6.2680998 -1044.61
15.3258 6.7205501 -1044.92
14.7993 6.9286799 -1045.1
14.1937 7.0737901 -1045.1899
12.9678 7.3593402 -1045.09
11.4018 7.6675401 -1045.3101
10.207 7.5600901 -1044.89
9.8627901 7.8448501 -1044.9399
8.5794401 7.7702599 -1044.77
7.35638 8.1777 -1044.65
5.9942899 8.2940102 -1044.8
5.4923401 8.4189796 -1044.84
0.92022699 9.0217304 -1043.98
-0.141083 8.83255 -1043.84
-0.86749297 9.3038597 -1043.89
-1.74896 9.2544899 -1043.51
-1.68747 9.1738005 -1043.01
-4.4292002 9.0025902 -1042.29
-10.0303 9.1041899 -1040.25
-11.3976 8.9863005 -1039.54
-13.8113 8.3088999 -1037.89
41.6707 -3.2432599 -1034.45
33.7257 0.996979 -1039.48
32.527901 1.50912 -1040.01
31.8612 1.69598 -1040.17
30.627701 2.30005 -1040.86
29.8286 2.4976201 -1040.99
29.3736 2.6254301 -1041.1
28.6091 2.82886 -1041.24
28.1036 3.1447101 -1041.59
27.557501 3.5226099 -1042.01
26.881901 3.59271 -1041.98
26.253201 3.74124 -1042.1
25.6947 4.0223098 -1042.4
24.6049 4.6444702 -1043.05
23.878901 4.6691599 -1042.92
23.288799 4.89258 -1043.14
22.027201 5.4059401 -1043.67
21.4884 5.5809898 -1043.79
20.411301 5.9860201 -1044.16
19.8237 6.0331101 -1043.97
18.6735 6.3678899 -1044.3199
18.171 6.4475398 -1044.17
15.9558 7.0910602 -1044.72
15.4396 7.27213 -1044.87
14.7939 7.3800998 -1044.64
14.3006 7.5757098 -1045.05
13.8176 7.5487399 -1044.67
13.2427 7.6893601 -1044.7
12.5665 7.9679899 -1045.1899
11.6063 8.0057096 -1044.72
9.8885202 8.2661104 -1044.98
7.68466 8.5892296 -1044.8101
6.6114202 8.8499804 -1044.89
5.0713501 9.4449501 -1044.53
3.59552 9.2958403 -1044.36
2.00073 9.4326801 -1044.04
-0.64630097 9.6544504 -1043.51
-5.0691199 9.8258104 -1042.05
-6.6426702 9.3095703 -1041.67
-9.8624296 9.2899799 -1040
-10.3093 9.2259502 -1039.7
-11.0037 9.34799 -1039.61
-15.1339 8.7267799 -1036.9
41.8615 -2.6147499 -1034.53
41.055599 -2.8963001 -1034.89
33.756302 1.31445 -1039.1
33.145699 1.62167 -1039.37
32.606201 1.96997 -1039.78
31.260401 2.3297999 -1040.14
30.622 2.66785 -1040.45
29.972 2.87814 -1040.65
29.4095 3.3104601 -1041.13
28.824301 3.54282 -1041.4
28.1852 3.75052 -1041.5601
27.572001 3.8582201 -1041.58
27.044399 4.1874399 -1041.95
26.366199 4.3248301 -1042.02
25.829599 4.57623 -1042.38
25.171101 4.7783799 -1042.4399
24.650499 5.0745502 -1042.83
23.979401 5.1747699 -1042.8101
23.3943 5.4035301 -1042.91
22.788401 5.6114802 -1043.25
22.1106 5.79425 -1043.38
21.639601 6.05688 -1043.47
19.778299 6.6051302 -1043.87
18.644199 6.7046499 -1043.9301
18.308901 6.8755498 -1043.86
17.6313 7.1580501 -1044.27
16.000099 7.4983802 -1044.4399
15.4128 7.56955 -1044.37
14.9407 7.8000202 -1044.65
14.1443 8.1750498 -1044.6801
13.1798 8.2712097 -1044.9
12.6725 8.4929199 -1045.05
12.0726 8.5023499 -1044.96
11.4651 8.4484301 -1044.72
10.4529 8.7967196 -1044.6
7.8041401 9.1648903 -1044.8199
7.30408 9.3579702 -1044.58
6.66714 9.36514 -1044.87
6.0376601 9.6480999 -1044.3101
2.4309399 10.0182 -1043.78
2.03265 10.252 -1043.99
1.01123 10.2103 -1043.59
0.18450899 9.9113503 -1043.16
-0.36416599 10.256 -1043.24
-1.5563999 10.1467 -1043.03
-1.5094301 10.0851 -1042.6801
-3.0961001 10.2152 -1042.36
-3.9966099 10.3048 -1042.21
-5.42801 10.3748 -1041.86
-6.4577899 10.312 -1041.47
-7.0795298 10.2221 -1041.38
-8.94275 9.9963102 -1040.12
-10.7683 9.8809204 -1039.3199
-15.1199 9.0664997 -1036.66
41.828899 -2.3232701 -1034.05
41.270302 -2.0712299 -1034.51
33.860802 1.83533 -1039
32.619099 2.35428 -1039.4399
32.072201 2.68524 -1039.85
31.3703 2.8817699 -1039.99
30.7833 3.27231 -1040.5
30.065599 3.3984101 -1040.55
29.5161 3.59866 -1040.65
28.9307 3.80756 -1040.85
27.632299 4.2928801 -1041.38
27.103901 4.6329298 -1041.77
26.481899 4.8324299 -1041.9301
25.7432 5.0766902 -1042
24.659901 5.4635301 -1042.47
24.151199 5.5560899 -1042.36
23.440201 5.7997699 -1042.78
22.8321 6.11835 -1042.9301
22.290899 6.3370099 -1043.36
21.726999 6.51193 -1043.24
21.0987 6.6828899 -1043.58
20.547199 6.9278598 -1043.79
18.267799 7.50769 -1044.09
17.6873 7.6203899 -1044.16
16.098 7.9784198 -1044.33
15.4522 7.9285898 -1044.0601
14.8791 8.3427696 -1044.21
13.8025 8.5482197 -1044.64
13.2328 8.6787996 -1044.65
9.0661001 9.4215403 -1044.22
8.0148296 9.70401 -1044.34
5.0996399 9.83957 -1044.3
3.43524 10.1498 -1043.6801
2.5134599 10.4906 -1043.6
1.01245 10.5474 -1043.52
0.23840301 10.372 -1042.96
-2.5255401 10.5467 -1042.12
-3.8646901 10.6081 -1042.02
-6.4064598 10.7651 -1041.22
-7.0640302 10.7402 -1041.1899
-10.2153 10.3956 -1039.34
-12.7138 10.1819 -1038.21
40.610699 -1.1756901 -1034.62
33.887001 2.1796899 -1038.54
32.1138 3.1052899 -1039.58
30.7932 3.6117599 -1040.08
30.1075 3.8285501 -1040.1899
29.5273 4.1395602 -1040.63
29.058701 4.2484999 -1040.5699
28.275499 4.5534701 -1041
27.7808 4.9179101 -1041.41
27.163401 5.09512 -1041.58
26.559601 5.2827501 -1041.75
25.9977 5.5430002 -1042.02
25.296499 5.6399798 -1041.98
24.712799 5.8746901 -1042.17
24.124599 6.1135302 -1042.45
23.457701 6.1794701 -1042.36
22.9279 6.43539 -1042.6801
22.382299 6.7303801 -1043.01
21.7174 6.8064899 -1043.02
21.218399 7.2045598 -1043.46
20.547701 7.4077501 -1043.33
18.8032 7.6666298 -1043.59
18.2722 7.9155002 -1043.86
16.6238 8.2362099 -1043.92
16.0728 8.3318501 -1043.92
15.5813 8.6168499 -1043.8101
13.7697 9.2122803 -1044.25
13.3548 9.4551096 -1044.0699
12.7227 9.4224195 -1044.25
11.6227 9.6502104 -1043.89
11.1291 9.8079796 -1043.92
8.9705496 10.0806 -1043.8199
7.90903 10.0576 -1044.4301
7.41187 10.6181 -1044.25
6.8642302 10.7391 -1044.26
5.7045002 10.5893 -1043.6899
4.8587298 10.9611 -1044.03
3.3814099 10.7585 -1043.58
1.21997 11.294 -1043.47
0.178223 11.1392 -1042.92
-0.35882601 11.001 -1042.8
-3.8159201 11.276 -1041.87
-4.78439 11.2769 -1041.55
-5.24863 11.3366 -1041.49
-8.5814199 10.7688 -1039.6
-9.6294603 10.7636 -1039.17
-11.0607 10.8522 -1038.83
-12.7247 10.6728 -1038.13
33.4109 3.06375 -1038.78
31.554501 3.91452 -1039.73
30.167101 4.4312401 -1040.03
28.3561 5.0367999 -1040.78
27.8657 5.3622398 -1041.1801
27.2155 5.5351 -1041.3199
26.6558 5.7021799 -1041.23
26.032301 5.9298701 -1041.4301
25.415199 6.1900001 -1041.91
24.7939 6.3622999 -1041.99
22.3997 7.0436702 -1042.53
21.755301 7.52039 -1042.79
21.2717 7.5120802 -1042.99
20.650499 7.7235098 -1043.17
20.0814 7.9006 -1043.3199
17.752001 8.4885302 -1043.67
17.2076 8.5858498 -1043.67
15.154 9.1949196 -1043.59
12.9368 10.0808 -1043.9301
12.3332 9.9768105 -1043.64
10.7614 10.2104 -1043.9
9.0854502 10.6521 -1043.79
8.0365896 10.9173 -1043.91
5.2691302 11.0872 -1043.4
4.9579501 11.424 -1043.8
3.6178 11.1021 -1043.17
2.3070099 11.6854 -1043.4301
1.25797 11.7502 -1043.23
-1.24588 11.631 -1042.23
-4.5645099 11.4699 -1041.13
-6.2544899 11.7231 -1040.8199
-8.6236601 11.3825 -1039.5601
-9.5742197 11.4187 -1039.27
-10.049 11.4007 -1039.03
-11.1246 11.3205 -1038.49
-12.5306 11.0739 -1037.78
42.139301 -0.74404901 -1033.59
40.172699 0.186188 -1034.62
33.466 3.51526 -1038.5
32.906101 3.8144801 -1038.85
32.280201 4.0718699 -1039.1
31.5606 4.2521701 -1039.3
30.892799 4.4778099 -1039.49
28.4116 5.4471998 -1040.49
27.940399 5.84552 -1040.97
27.3258 6.0639601 -1041.17
26.6875 6.2044702 -1041.24
25.5016 6.6772499 -1041.6801
24.875 6.83569 -1041.8
24.254801 7.03122 -1041.95
23.725 7.3055701 -1041.87
23.103001 7.5113802 -1042.0601
22.499599 7.5843801 -1042.38
21.974501 7.79181 -1042.61
21.3738 8.0389996 -1042.53
20.833799 8.2193604 -1042.99
19.5972 8.5328398 -1043.22
18.4062 8.8710604 -1043.41
17.827801 8.9698496 -1043.47
13.5159 10.3597 -1043.41
11.8488 10.6878 -1043.51
9.1396799 11.1833 -1043.58
8.1018696 11.2558 -1043.76
7.6282301 11.5687 -1043.72
7.0803199 11.5715 -1043.59
6.4565101 11.4839 -1043.29
5.4874902 11.5675 -1043.48
3.93805 11.7685 -1043.27
2.7959599 11.9384 -1042.9301
-0.17230199 12.0366 -1042.39
-1.17334 12.168 -1042.0601
-1.98962 11.9106 -1041.62
-2.6834099 12.228 -1041.71
-3.62378 12.0541 -1041.3101
-6.1328402 12.274 -1040.6801
-8.61835 11.8826 -1039.4
-10.0276 11.7732 -1038.6899
-10.995 11.7211 -1038.17
-12.4652 11.6897 -1037.66
-15.6498 10.8307 -1035.12
41.559101 0.163269 -1033.8199
40.938599 0.263062 -1033.92
31.763 4.70227 -1038.84
31.024 5.0700402 -1039.36
29.7563 5.6153302 -1039.97
29.1152 5.7930899 -1040.0699
28.504499 5.9865699 -1040.27
27.337999 6.52493 -1040.62
26.7922 6.7491102 -1041.02
26.2286 7.0336299 -1041.3
25.530701 7.1662002 -1041.1801
24.9319 7.3175998 -1041.5
24.2946 7.4883399 -1041.62
23.101601 7.7988601 -1041.8101
22.059099 8.3134804 -1042.05
21.513599 8.4865398 -1042.47
20.841101 8.7023296 -1042.38
20.4067 8.8961496 -1042.89
19.6737 8.9178801 -1042.72
16.271099 9.77139 -1043.23
15.7793 9.9505901 -1043.36
8.2770395 11.5945 -1043.33
7.3482699 11.6132 -1043.11
7.02316 11.7958 -1042.89
5.5260301 11.9834 -1042.76
4.05688 12.1503 -1042.96
2.99475 12.3164 -1042.88
2.48965 12.5959 -1042.8199
0.42257699 12.8443 -1042.61
-0.97302198 12.4287 -1041.75
-3.5332601 12.5247 -1041.09
-6.1028399 12.6538 -1040.4301
-8.4577599 12.6467 -1039.42
-9.9901104 12.3014 -1038.53
-10.9865 12.2425 -1038.08
-12.3684 12.0885 -1037.34
31.819401 5.4488201 -1039.0699
30.5165 5.9455299 -1039.6
29.765301 6.0408902 -1039.63
29.191601 6.27563 -1039.8101
28.077499 6.8063002 -1040.39
27.4132 6.9372602 -1040.45
26.905701 7.3128099 -1040.9
26.2122 7.39676 -1040.78
25.620399 7.5975299 -1040.96
25.0072 7.81143 -1041.28
23.8897 8.3426504 -1041.8199
23.229799 8.3746901 -1041.71
22.66 8.5511198 -1041.87
20.9807 9.0893602 -1042.27
20.4196 9.2308302 -1042.39
19.7495 9.3664198 -1042.41
19.136801 9.6353798 -1042.71
14.7333 10.6063 -1043.11
11.5569 11.5069 -1043.64
10.4308 11.763 -1043.3
6.66888 12.2739 -1042.99
6.4752798 12.0767 -1042.6
5.2080102 12.6431 -1042.58
0.37960801 13.1202 -1042
-1.05948 13.212 -1041.6899
-6.0741 13.1111 -1040.27
-9.1469097 12.9325 -1038.92
-12.277 12.7715 -1037.29
39.007401 2.29617 -1034.58
33.1106 5.2545199 -1038.04
32.387402 5.4138198 -1038.25
31.7293 5.6241102 -1038.33
31.1413 5.9646902 -1038.74
30.612 6.1564598 -1039.01
29.9734 6.4169598 -1039.27
28.694 7.0299101 -1039.8199
28.1415 7.3077698 -1040.13
27.607401 7.6443801 -1040.47
25.633301 8.1109896 -1040.78
25.1217 8.3442097 -1041.05
24.510401 8.5658903 -1041.28
23.8613 8.6491098 -1041.24
23.4151 8.8064604 -1041.29
22.742901 9.0434599 -1041.58
22.209101 9.2336998 -1041.74
20.4597 9.6978502 -1042.05
19.8162 10.0181 -1042.3
19.3001 10.2119 -1042.65
18.662399 10.4057 -1042.5601
17.418501 10.4557 -1042.55
14.889 11.198 -1042.72
14.2973 11.3287 -1043.05
13.7317 11.4435 -1043.08
11.995 11.6569 -1042.98
11.0388 11.9567 -1043.25
10.5572 12.117 -1043.34
9.5524302 12.2112 -1042.83
8.21912 12.532 -1042.36
4.0900898 12.6969 -1042.37
2.5852101 12.9928 -1042.41
1.46268 13.0494 -1042.1899
-1.84814 13.3678 -1041.09
-3.5482199 13.2639 -1040.97
-5.9023399 13.5009 -1039.97
-7.4597502 13.7029 -1039.4399
-12.4617 13.1254 -1037.13
-13.1984 12.7304 -1036.17
-14.5007 12.416 -1035.15
33.812901 5.5844102 -1037.6801
31.955999 6.3591599 -1038.52
31.2328 6.4650898 -1038.51
30.576 6.6961398 -1038.86
29.986 6.9156199 -1039.08
29.394699 7.2862501 -1039.41
28.768101 7.4119902 -1039.54
28.2444 7.8053899 -1039.98
27.028 8.1879902 -1040.26
26.3255 8.3166504 -1040.35
25.8036 8.64429 -1040.71
25.2122 8.8674898 -1040.92
24.6019 9.0910902 -1041.08
24.017099 9.2838097 -1041.29
23.440701 9.2755699 -1041.12
22.8281 9.52948 -1041.42
21.070101 10.0218 -1041.6899
19.826099 10.5065 -1042.1
19.3295 10.6523 -1042.24
18.7547 10.8827 -1042.5601
18.132299 10.9768 -1042.54
17.594299 11.0882 -1042.61
17.174601 11.1759 -1042.4301
16.021999 11.4233 -1042.53
14.8767 11.6252 -1042.71
13.2782 12.1167 -1043.02
12.1253 12.227 -1042.9301
9.3680096 12.4644 -1042.6
8.9427795 12.6704 -1042.72
6.8652 13.4038 -1042.38
5.35147 13.1789 -1042.47
4.24225 13.412 -1042.14
4.1332998 13.0686 -1042.01
1.48944 13.3248 -1041.66
0.67608601 14.0161 -1041.5699
0.11322 13.8007 -1041.97
-2.0292399 14.0567 -1040.8101
-6.0149498 14.0663 -1039.9399
39.912601 2.79037 -1033.84
39.1353 3.2024801 -1034.05
33.896301 6.0374498 -1037.4301
33.310902 6.2339501 -1037.6899
32.583302 6.2930899 -1037.74
31.985399 6.7504301 -1038.21
31.258801 6.8983202 -1038.39
30.5951 7.1721501 -1038.6899
29.472401 7.71732 -1039.22
28.234301 8.0833397 -1039.53
27.7293 8.4805899 -1039.98
27.132401 8.7134104 -1040.24
26.327801 8.8396902 -1040.21
25.8153 8.97507 -1040.28
23.527 9.9129 -1041.21
22.914301 10.0034 -1041.23
21.196699 10.4608 -1041.5601
20.6509 10.6915 -1041.75
20.0287 10.8975 -1041.92
19.4095 11.1064 -1042.02
18.8433 11.3627 -1042.42
18.121201 11.2597 -1042.1
17.1332 11.7059 -1042.47
14.9899 12.1699 -1042.65
12.1754 12.6327 -1042.6801
11.0841 12.7235 -1042.53
7.8853798 13.2555 -1042.47
6.6300702 13.4442 -1041.96
5.8471098 13.475 -1042.17
5.4408598 13.6397 -1042.28
2.82355 13.9895 -1041.65
-0.74237102 14.3563 -1041.17
-5.7821002 14.6846 -1039.66
-7.2939501 14.3302 -1038.97
-8.2126198 14.3994 -1038.47
-10.6559 14.1715 -1037.23
-13.0743 13.8388 -1035.88
39.332298 3.3853099 -1033.4399
34.713501 6.14328 -1036.8199
33.9174 6.3769202 -1037.0699
33.3349 6.6556101 -1037.38
32.789902 6.9829702 -1037.79
32.052799 7.1594801 -1037.88
31.3368 7.2758198 -1038.01
30.8099 7.5645399 -1038.3101
29.4676 8.1638498 -1038.9
28.889601 8.3527498 -1039.1
28.398001 8.70084 -1039.55
27.6614 8.8110704 -1039.54
27.2346 9.2052002 -1040.0601
26.5319 9.2805204 -1039.98
25.951799 9.5084496 -1040.21
25.352699 9.7342501 -1040.45
24.1532 10.1413 -1040.8199
22.9701 10.4547 -1041.03
21.769699 10.6083 -1041
21.197901 10.9959 -1041.27
20.764601 11.2407 -1041.67
20.1306 11.4565 -1041.9
19.4324 11.5202 -1041.92
18.9916 11.7201 -1041.84
18.271299 11.8401 -1042.14
17.746599 12.0371 -1042.21
17.1866 12.0978 -1042.1801
16.1784 12.4086 -1042.39
12.1985 12.9942 -1042.33
6.9101601 14.1732 -1041.8
5.9319201 14.2807 -1041.71
5.0618901 14.1289 -1041.6
4.02771 14.2751 -1041.45
1.74097 14.6548 -1041.38
0.77572602 14.7422 -1040.88
-1.02539 14.6942 -1040.58
-4.3341098 14.9459 -1039.6899
-5.84167 14.9741 -1039.53
-6.71246 14.8316 -1038.97
-8.2904701 14.7608 -1038.29
33.374901 6.9518399 -1036.97
32.770699 7.3373098 -1037.36
32.071098 7.53125 -1037.5699
31.478399 7.8499799 -1037.95
30.8867 8.2033701 -1038.36
28.2824 9.0872498 -1039.12
27.8741 9.3641701 -1039.5601
27.274401 9.6104403 -1039.78
26.6593 9.75879 -1039.86
26.0714 9.8392 -1039.75
24.802999 10.3371 -1040.33
24.2388 10.6351 -1040.65
23.535801 10.5461 -1040.41
21.961201 11.2678 -1041.12
21.3745 11.402 -1041.1801
20.8405 11.6654 -1041.48
20.100401 11.7932 -1041.52
19.4646 11.9212 -1041.65
18.3207 12.2461 -1041.83
17.812201 12.4416 -1041.98
17.3276 12.6544 -1042.15
16.7658 12.6718 -1042.08
16.209299 12.7762 -1042.12
15.6793 12.9347 -1042.23
9.6564302 13.8672 -1042.08
9.2072401 14.0807 -1042.24
8.22223 14.2653 -1041.8101
5.51547 14.4718 -1041.86
0.51452601 15.4562 -1040.92
-0.67681903 15.2878 -1040.67
-3.08148 15.2905 -1039.92
-4.1318998 15.3343 -1039.64
-4.7534199 15.4465 -1039.62
-9.7185698 15.2244 -1037.53
-10.4879 15.1322 -1036.95
-14.2399 14.5207 -1034.63
-15.2283 14.313 -1033.9399
-16.055599 13.8805 -1033.05
32.788601 7.9366498 -1037.3199
29.8377 8.9498301 -1038.26
27.777399 9.7789001 -1039.08
27.360701 10.0536 -1039.5699
26.740101 10.2133 -1039.6801
26.0979 10.4056 -1039.84
25.4601 10.5742 -1039.9301
24.871901 10.775 -1040.12
24.4125 10.8783 -1039.98
23.702499 11.1304 -1040.39
23.011499 11.4456 -1040.48
21.2999 11.9867 -1040.87
20.1287 12.1897 -1041.23
19.5401 12.4076 -1041.4399
17.7698 12.7292 -1041.48
16.8002 13.2635 -1041.6899
14.0612 13.8613 -1041.85
12.4222 14.0397 -1042.17
11.3494 14.1643 -1041.98
9.8514099 14.8257 -1041.75
9.34937 14.6259 -1041.6801
8.1617403 15.03 -1041.55
4.4668899 15.3257 -1041.01
1.97229 15.5327 -1040.86
0.94256598 15.6985 -1040.52
0.32952899 15.7436 -1040.65
-0.559174 15.7766 -1040.17
-1.60526 16.0485 -1040.09
-4.0961599 15.9892 -1039.42
-4.51227 15.9558 -1039.26
-6.8575401 15.5467 -1038.04
-9.4355497 15.6812 -1037.21
-10.3802 15.6642 -1036.86
-11.3605 15.3703 -1036.13
-11.9042 15.5172 -1036.08
-14.2172 14.9337 -1034.3
-15.1544 14.6629 -1033.6
32.732601 8.3569002 -1037.1
29.0513 9.9750996 -1038.83
27.8652 10.3197 -1038.9
26.079201 10.9185 -1039.39
25.576 11.0651 -1039.8
24.975 11.3062 -1040
24.3596 11.4399 -1040.08
23.7535 11.5918 -1040.15
22.695499 11.9804 -1040.17
22.1066 12.1658 -1040.3199
21.5522 12.3519 -1040.79
20.8283 12.6759 -1040.83
20.217501 12.6854 -1041.0601
19.641701 12.8842 -1041.25
19.070601 13.118 -1041.45
18.1133 13.4014 -1041.25
17.378599 13.4298 -1041.53
16.9139 13.6516 -1041.76
16.447901 13.8018 -1041.39
15.7385 14.0542 -1041.5699
12.5602 14.637 -1041.58
12.0336 14.9543 -1041.6
11.3661 14.9003 -1041.37
9.8674297 15.2586 -1041.45
8.5858202 15.1183 -1041.17
7.12393 15.5647 -1041.1801
6.1452599 15.6997 -1041.08
4.5690598 15.8303 -1040.84
0.976807 16.133499 -1040.26
-4.3480501 16.451401 -1039.0699
-5.4777198 16.1814 -1038.29
-7.93365 16.2978 -1037.7
-9.4003601 16.112301 -1036.9301
-10.3806 16.060301 -1036.53
-12.7252 15.6999 -1035.09
-14.0304 15.2463 -1033.88
33.534302 8.6951599 -1036.8
32.905899 8.93332 -1037.1
32.2332 9.1824999 -1037.34
30.9419 9.8303804 -1038.1
30.2635 10.0347 -1038.3
29.0793 10.5641 -1038.62
28.480499 10.6446 -1038.86
26.252399 11.4363 -1039.48
25.636299 11.5316 -1039.54
25.024 11.7535 -1039.4301
23.8333 12.0682 -1039.9399
23.2283 12.1453 -1039.95
22.2087 12.6739 -1040.49
21.5711 12.7169 -1040.42
21.083099 13.042 -1040.79
20.294701 13.0746 -1040.74
18.539499 13.6465 -1041.21
17.5138 13.9878 -1041.4301
14.2345 14.9291 -1041.1
13.7941 15.1022 -1041.29
12.6569 15.2999 -1041.24
9.92383 15.7939 -1041.24
9.0886803 15.606 -1041.0601
6.1893001 16.096701 -1040.6899
5.8220201 16.0839 -1040.88
4.72223 16.4739 -1040.78
2.1602499 16.736601 -1040.48
0.56210297 16.7038 -1040.01
-0.59973103 16.826599 -1040.03
-1.77917 16.703501 -1039.46
-2.8937399 16.8477 -1039.3199
-4.2720299 16.573099 -1038.41
-5.47018 16.505899 -1037.75
-7.8856502 16.7129 -1037.3101
-9.40063 16.625401 -1036.8101
-10.7804 16.3944 -1035.97
-12.629 16.1611 -1034.84
-15.0764 15.7334 -1033.26
33.600498 9.2279396 -1036.5601
32.337399 9.9101 -1037.36
31.620501 10.1069 -1037.5699
31.011101 10.4356 -1037.98
29.110701 10.8714 -1038.25
27.4027 11.6873 -1039.17
26.912399 11.7331 -1038.8
25.7687 11.9846 -1038.9399
25.115601 12.2303 -1039.45
24.1271 12.479 -1039.3
23.3692 12.7765 -1039.85
22.839899 12.9686 -1040.0601
22.2855 13.11 -1039.8199
21.7314 13.3468 -1040.37
21.1768 13.5574 -1040.5699
20.495899 13.6824 -1040.65
19.8671 13.9814 -1040.6
18.0632 14.2515 -1040.92
17.601101 14.5237 -1041.24
17.007299 14.4857 -1041.1
16.466801 14.602 -1041.12
15.2882 14.6766 -1040.9301
10.0117 16.288 -1041.03
9.5734901 16.4771 -1041.17
9.0284405 16.1761 -1040.97
7.2936401 16.099501 -1040.99
5.9531298 16.5406 -1040.61
2.74576 17.1397 -1040.22
2.15836 17.0051 -1039.87
-0.28518701 17.380199 -1039.71
-1.86972 17.3899 -1039.22
-2.74701 17.1919 -1038.87
-4.3691401 17.152201 -1038.33
-5.3627901 17.143801 -1037.9301
-6.3675199 17.073601 -1037.34
-7.7901001 17.1467 -1036.96
-9.1591501 17.2246 -1036.64
-12.5861 16.621201 -1034.49
-14.0116 16.3505 -1033.6
34.1591 9.4404001 -1036.04
32.892899 10.0442 -1036.76
32.243599 10.1557 -1036.8
31.657801 10.5721 -1037.3199
31.047899 10.9806 -1037.84
30.4258 11.1902 -1038.01
29.214199 11.4753 -1038.1801
28.731899 11.6052 -1038.25
28.105 11.9895 -1038.71
25.803301 12.5532 -1039.09
24.0464 13.1172 -1039.51
22.7936 13.2711 -1039.4301
22.281401 13.52 -1039.71
21.218 13.9578 -1040.1801
20.636 14.157 -1040.36
20.0681 14.3943 -1040.66
19.3489 14.4565 -1040.59
18.8479 14.6693 -1040.53
18.226 14.8076 -1040.83
17.178499 15.0706 -1041
15.5403 15.386 -1040.6899
8.4982901 17.0536 -1040.75
4.7218599 16.862801 -1040.4301
1.30545 17.2708 -1040.01
-1.71515 17.5672 -1038.97
-2.5784299 17.4373 -1038.4301
-4.1679101 17.4844 -1037.95
-5.2352901 17.5945 -1037.4301
-6.5391202 17.422001 -1037.04
-8.5778198 17.467199 -1036.33
-10.5087 17.2201 -1035.35
-11.5436 17.099199 -1034.8
-12.5369 16.9921 -1034.27
-13.9617 16.791599 -1033.4
34.317799 9.8522902 -1035.77
33.767799 10.318 -1036.2
33.1875 10.679 -1036.66
32.3652 10.765 -1036.8101
31.7768 11.1394 -1037.1801
31.1276 11.2988 -1037.4
29.8671 11.8726 -1037.89
29.3692 12.1738 -1038.23
28.738001 12.1096 -1038.09
28.2097 12.4724 -1038.52
27.044901 12.6988 -1038.62
26.502001 12.9042 -1038.7
25.889299 13.0294 -1038.8
25.3165 13.2632 -1039.01
24.7045 13.2786 -1038.84
23.566099 13.762 -1039.39
22.9067 13.8725 -1039.3101
21.868999 14.2832 -1039.8101
20.665001 14.5468 -1039.91
20.091801 14.7562 -1040.0699
19.506901 14.944 -1040.26
18.926901 15.1158 -1040.45
17.7789 15.3145 -1040.4399
16.798401 15.6254 -1040.6801
15.6855 15.7498 -1040.34
14.5984 15.9466 -1040.34
13.4209 16.145399 -1040.62
11.3558 16.700701 -1040.62
10.1337 16.9687 -1040.71
7.6264601 17.228901 -1040.33
7.0661001 17.3515 -1040.35
6.5250502 17.790001 -1040.33
6.3369398 17.1196 -1040.29
4.7292199 17.273001 -1040
3.8518701 17.626699 -1040.28
3.3626699 17.6738 -1040.21
2.18417 17.3507 -1039.38
0.96945202 18.2232 -1039.35
-0.23309299 18.2003 -1039
-4.0595102 18.206301 -1037.77
-5.1659198 18.044399 -1037.1801
-7.5588999 17.791401 -1036.49
-8.5356102 17.9772 -1035.98
-8.9231901 18.0662 -1035.99
-9.50348 17.7708 -1035.63
-9.9070396 17.6444 -1035.29
-12.3518 17.7208 -1034.2
-13.7521 17.1106 -1033.05
32.368698 11.2094 -1036.59
31.9086 11.5374 -1036.83
31.285601 11.9799 -1037.37
30.4772 11.9528 -1037.1801
29.9753 12.3443 -1037.7
29.409901 12.6612 -1038.03
28.188299 12.8524 -1038.0601
27.051701 13.0765 -1038.1
25.985399 13.5273 -1038.58
24.748301 13.8456 -1038.78
24.0868 13.994 -1038.86
23.5392 14.075 -1038.89
23.070299 14.346 -1039.2
22.505301 14.5245 -1039.34
20.7425 14.9925 -1039.64
19.0201 15.5164 -1040.03
18.485901 15.6807 -1040.16
17.4158 15.8918 -1040.26
16.830999 15.9197 -1040.1899
15.6897 16.155399 -1040.22
12.8779 16.7101 -1040.29
12.5384 16.968201 -1040.66
10.858 17.2589 -1040.42
10.3336 17.332399 -1040.4
8.5531597 17.877899 -1040.17
7.5569501 17.7834 -1040.26
7.0552402 17.721901 -1040.38
3.7887599 18.253 -1039.9301
3.4147899 18.019899 -1039.79
2.3884301 17.977501 -1039.4
1.5403399 18.2132 -1039.0699
-1.10501 18.7339 -1038.63
-2.62082 18.559099 -1037.86
-3.9769299 18.6602 -1037.6
-12.3782 17.865999 -1033.8199
34.9734 10.5468 -1035.14
34.615398 10.923 -1035.4301
33.881802 11.1809 -1035.6801
32.651699 11.7924 -1036.41
32.073399 12.0737 -1036.74
31.270901 12.1664 -1036.73
30.6341 12.422 -1037.03
30.029699 12.6824 -1037.37
28.8818 13.0906 -1037.6801
27.077801 13.5111 -1037.85
26.026899 13.9199 -1038.29
24.812799 14.2025 -1038.47
23.6548 14.5305 -1038.71
23.213699 14.9071 -1039.16
22.541201 14.9403 -1039.04
21.3281 15.2888 -1039.21
20.8109 15.4255 -1039.4
20.2658 15.621 -1039.58
18.4958 15.9482 -1039.6899
17.9972 16.1357 -1039.86
17.475401 16.281601 -1039.9399
16.9701 16.4104 -1040.04
16.436501 16.5236 -1040.01
15.8882 16.585699 -1039.78
14.5802 16.7885 -1040.03
14.1256 16.9984 -1040.22
12.9594 17.1336 -1040.17
10.4155 17.7777 -1040.17
9.4216299 17.8864 -1040.04
6.53125 18.133699 -1039.9301
3.65253 18.9986 -1039.52
3.5220301 18.5865 -1039.34
0.54260302 18.7211 -1039.09
-2.5525501 18.994801 -1037.64
-6.4962201 18.728901 -1036.45
-11.371 18.506399 -1034.1801
-12.2183 18.572399 -1033.79
-13.7564 18.144899 -1032.78
-14.5321 17.870899 -1032
35.872101 10.8 -1034.55
35.256199 11.0366 -1034.8
34.732899 11.3901 -1035.23
33.964298 11.66 -1035.49
33.318298 11.9852 -1035.92
32.622601 12.0361 -1035.9399
31.436701 12.6659 -1036.5601
30.900101 12.6505 -1036.5601
30.2437 13.0563 -1037
29.672501 13.3776 -1037.37
29.0616 13.5773 -1037.46
28.450899 13.6438 -1037.46
24.900801 14.6701 -1038.28
24.3927 14.7908 -1038.22
23.7054 15.0702 -1038.47
22.6066 15.3019 -1038.74
22.0916 15.6147 -1039.08
21.5443 15.7781 -1039.21
20.3109 15.9975 -1039.25
19.6651 16.0714 -1039.22
19.256399 16.277399 -1039.22
18.6257 16.468201 -1039.5601
17.604099 16.809799 -1039.8199
16.9615 16.751101 -1039.61
14.6774 17.1747 -1039.75
14.1454 17.2925 -1039.7
11.5591 17.8295 -1040.01
10.957 17.992399 -1040.08
9.2713003 18.386999 -1040.22
8.6478901 18.385099 -1040
7.8492999 18.585699 -1039.7
6.6566501 19.018 -1039.58
5.0513301 19.1259 -1039.29
5.0643301 18.702801 -1039.01
2.50439 19.143299 -1038.51
1.10803 19.1723 -1038.55
0.041534401 19.3435 -1038.0699
-1.3496701 19.5972 -1038.0699
-2.30426 19.243999 -1037.46
-3.3766501 19.5114 -1037.3
-3.85022 19.518 -1037.14
-5.8386202 19.507799 -1036.48
-6.3599901 19.4744 -1036.25
-10.8922 19.030399 -1034.25
-11.2728 18.914101 -1033.88
-13.5735 18.7565 -1032.67
-14.4827 18.667999 -1032.1899
34.779202 11.7491 -1034.84
33.4576 12.5005 -1035.85
32.639198 12.5679 -1035.76
32.1945 12.8916 -1036.15
30.8563 13.2286 -1036.42
28.531099 14.1125 -1037.3
27.9529 14.3463 -1037.53
26.2118 14.8057 -1037.8
25.618999 15.0305 -1038.03
24.9765 15.098 -1038.04
24.454599 15.2654 -1038
23.8002 15.4138 -1038.28
23.2645 15.6195 -1038.41
18.691799 16.8636 -1039.3199
18.1926 17.094 -1039.53
17.126499 17.317301 -1039.62
14.7694 17.6548 -1039.61
14.312 17.9039 -1039.45
13.8186 17.966 -1039.42
13.1122 18.0467 -1039.7
12.7617 18.200701 -1039.83
12.0081 18.0424 -1039.48
11.6772 18.3521 -1039.86
11.2152 18.808001 -1039.62
10.6087 18.6763 -1039.66
7.79633 19.130501 -1039.63
6.8653598 19.223101 -1039.4399
5.1269798 19.545601 -1039.05
2.6052201 19.6189 -1038.36
2.18365 19.75 -1038.39
0.67846698 19.447201 -1038.39
-1.26495 19.687901 -1037.55
-2.3029499 20.006701 -1037.45
-3.72278 20.060101 -1037.0699
-6.3226299 19.865299 -1035.9399
-6.7922101 19.886 -1035.8
-7.2867098 19.844299 -1035.6
-12.1574 19.361 -1033.17
-13.7418 19.2059 -1032.5
-19.0756 17.8057 -1028.15
32.208599 13.203 -1035.6899
30.3498 13.8585 -1036.28
29.115299 14.1934 -1036.54
28.683701 14.4073 -1036.95
26.899401 15.0359 -1037.34
25.7687 15.2946 -1037.35
25.077801 15.5954 -1037.8199
23.8018 15.7258 -1037.78
23.356199 16.052299 -1038.2
22.7889 16.2682 -1038.15
22.198601 16.390499 -1038.48
21.703199 16.648199 -1038.76
21.091999 16.8346 -1038.85
20.496201 16.9223 -1038.92
19.9445 17.1551 -1039.08
19.309999 17.198799 -1038.99
18.682699 17.1602 -1038.8199
17.7397 17.634501 -1039.3101
16.6329 17.8391 -1039.39
16.039801 17.890699 -1039.35
13.0973 18.3123 -1039.21
12.13 18.566999 -1039.38
11.6752 19.0693 -1039.11
11.2307 19.1572 -1039.16
10.7088 19.448799 -1039.54
10.063 19.538099 -1039.4301
9.3385601 19.152599 -1039.55
7.7934299 19.741501 -1039.17
6.74231 19.7869 -1038.98
5.2495999 20.084999 -1038.97
4.09583 20.043301 -1038.9
3.79703 20.1334 -1038.5601
2.7523201 20.195999 -1038.3101
1.29761 20.256399 -1038.01
-2.23557 20.4543 -1037.24
-3.7097499 20.392099 -1036.67
-10.3049 19.973101 -1034.12
-12.0723 19.7092 -1032.85
-13.5437 19.580299 -1032.13
-14.4357 19.390499 -1031.46
32.968102 13.5034 -1035.38
32.315399 13.631 -1035.39
31.749399 13.9009 -1035.51
29.314699 14.5993 -1036.23
28.192499 14.9429 -1036.5601
26.929399 15.4037 -1036.97
25.691 15.732 -1037.26
25.185699 16.083099 -1037.66
23.9519 16.291201 -1037.74
23.4722 16.590099 -1038.0699
21.650101 17.128901 -1038.2
21.132799 17.186399 -1038.53
20.6154 17.3878 -1038.3
18.8559 17.7827 -1038.87
17.757099 17.973 -1038.91
17.2801 18.1709 -1039.11
16.677799 18.2612 -1039.11
15.6141 18.8479 -1038.83
14.909 18.5016 -1039.03
14.464 19.0921 -1038.88
12.9174 19.1175 -1038.9399
12.2827 19.445499 -1038.9
8.9802198 20.1894 -1039.22
7.5747099 20.0909 -1038.98
4.3965502 20.404301 -1038.4301
2.7864399 20.5807 -1037.96
-3.57196 20.9396 -1036.5601
-5.1845698 20.7735 -1035.8199
-6.0894198 20.9146 -1035.7
-10.4864 20.5109 -1033.66
-13.5415 20.1612 -1031.98
-14.436 19.9713 -1031.35
36.955101 11.8683 -1032.46
35.823101 12.6767 -1033.53
34.3932 13.1884 -1034.01
33.033901 13.8169 -1034.6801
32.527901 14.1819 -1035.27
31.096901 14.502 -1035.6
30.0438 14.9806 -1035.79
29.515301 15.0217 -1035.74
28.3099 15.4877 -1036.46
27.071199 15.8759 -1036.52
25.2358 16.455 -1037.3
24.629601 16.576 -1037.37
24.1194 16.8554 -1037.67
23.576401 17.085899 -1037.87
22.934999 17.247 -1037.65
21.1532 17.777599 -1038.05
20.032 17.928301 -1038.42
18.4629 18.409901 -1038.37
17.3456 18.632799 -1038.86
16.7698 18.755699 -1038.9
16.2299 19.217699 -1038.49
11.8252 20.005699 -1038.52
9.1745596 20.7488 -1039.01
7.93152 20.7118 -1038.62
7.0149498 20.947001 -1038.73
-10.6104 20.9842 -1033.36
-11.5485 20.879 -1032.84
-11.9731 20.7307 -1032.39
-12.8271 20.669001 -1031.98
-14.175 20.2985 -1030.92
35.2728 13.4613 -1033.55
34.532001 13.6529 -1033.77
33.837101 13.8251 -1033.9399
31.8482 14.6511 -1034.8199
31.3337 15.0616 -1035.38
29.498501 15.7506 -1036.0699
26.5909 16.612 -1036.76
25.960501 16.7439 -1036.63
25.2558 16.8613 -1036.88
24.820499 17.2383 -1037.35
24.113501 17.393101 -1037.17
23.6266 17.466999 -1037.47
23.019899 17.598301 -1037.5
22.4576 17.8946 -1037.49
21.3234 18.1838 -1038.04
20.267799 18.4438 -1037.84
19.5914 18.641899 -1038.35
18.3946 18.7318 -1038.24
17.9583 19.0452 -1038.2
17.3384 19.2348 -1038.3101
16.8766 19.250099 -1038.71
15.6447 19.215099 -1038.35
15.0895 19.462 -1038.54
14.659 20.093 -1038.45
9.35425 20.806 -1038.58
7.17206 21.480101 -1038.61
6.1133399 21.5165 -1038.38
3.0399499 21.6938 -1037.67
1.56635 21.7283 -1037.34
-0.94757098 21.593201 -1036.61
-11.8909 21.2276 -1032.13
-13.3167 21.0277 -1031.42
34.617699 14.0902 -1033.39
34.006699 14.3956 -1033.72
33.269402 14.6084 -1033.99
32.662102 14.9608 -1034.4
32.007301 15.2215 -1034.6801
31.309601 15.3678 -1034.75
30.7349 15.5945 -1035.02
30.1898 15.9785 -1035.5
29.5707 16.2122 -1035.75
29.0334 16.202801 -1035.59
27.808901 16.619801 -1036.0699
26.621401 17.0373 -1036.38
26.025999 17.198799 -1036.39
25.3878 17.377199 -1036.66
24.261499 17.785801 -1037.0601
23.7064 17.949301 -1037.2
20.2036 18.8797 -1037.8199
19.778099 19.0075 -1037.6801
19.0867 19.209101 -1038.08
18.0284 19.502001 -1037.96
16.3482 19.767599 -1038.29
15.7798 19.8396 -1038.29
14.1652 20.1539 -1038.41
10.9586 20.9074 -1038.26
8.6607704 21.158501 -1038.52
6.78723 21.923401 -1038.15
6.27106 21.597601 -1037.99
5.6468501 21.8421 -1037.6801
4.5373201 21.861099 -1037.39
3.1229899 22.165899 -1037.45
1.65771 22.260599 -1037.13
-0.44805899 22.2929 -1036.5
-0.96865797 22.309601 -1036.41
-5.9043298 22.275999 -1034.83
-6.3952298 22.2763 -1034.64
-10.3015 21.948799 -1032.78
-11.7088 21.835199 -1032.14
-13.3386 21.5618 -1031.34
-18.7181 20.2059 -1027.01
35.869202 13.8268 -1032.4
35.447701 14.3226 -1032.88
34.669201 14.5163 -1033.01
32.117401 15.6668 -1034.36
31.451401 15.8456 -1034.5601
30.9718 16.315001 -1035.13
25.473101 17.842899 -1036.36
24.9856 18.1458 -1036.72
22.690001 18.856701 -1037.37
22.084101 18.934799 -1037.29
21.4496 19.068899 -1037.36
20.342899 19.461599 -1037.71
19.7141 19.4979 -1037.65
18.1073 19.910299 -1037.91
17.488701 19.9252 -1037.8199
16.9188 20.233 -1037.9301
16.4485 20.209 -1038.05
15.3858 20.505699 -1037.91
9.3643198 21.503099 -1038.22
8.2282696 21.615999 -1038.1
7.9016099 21.8403 -1037.95
5.6424599 22.141399 -1037.2
2.1530199 22.562201 -1036.79
-7.3099399 22.4147 -1033.9
-8.0239296 22.554399 -1033.92
-10.3312 22.3407 -1032.6801
-13.287 22.0287 -1031.12
34.763401 14.9072 -1032.63
33.4944 15.3853 -1033.39
32.8326 15.8024 -1033.76
31.0282 16.7374 -1034.9
30.329399 16.8165 -1034.87
27.8179 17.5422 -1035.42
27.364901 17.6623 -1035.48
26.757 17.859501 -1035.71
26.128901 18.082001 -1035.92
25.0347 18.4258 -1036.1801
23.902399 18.902 -1036.67
23.369301 18.900101 -1036.54
22.750299 19.253401 -1037.04
22.0644 19.3445 -1036.9301
20.388599 19.818399 -1037.38
19.858801 20.071899 -1037.6
19.269899 20.1234 -1037.58
18.7255 20.296301 -1037.6899
17.6036 20.4265 -1037.65
17.1408 20.677601 -1037.97
16.590099 20.7892 -1037.99
13.3836 21.3013 -1037.66
12.7817 21.455 -1037.74
11.7107 22.010799 -1037.6899
7.60706 21.8144 -1037.25
4.63977 22.355301 -1037.2
-6.7172198 23.1695 -1034.02
-7.1777301 23.1824 -1033.85
-7.8159199 22.937201 -1033.53
-11.7511 22.608 -1031.74
34.758598 15.267 -1032.51
34.171902 15.583 -1032.6801
33.633499 16.0667 -1033.34
32.233002 16.482901 -1033.72
31.059799 17.083 -1034.48
30.5049 17.361 -1034.84
29.856501 17.5842 -1035.02
26.2857 18.6234 -1035.9
25.6387 18.708099 -1035.8199
24.472401 19.059099 -1036.13
23.992599 19.3486 -1036.48
23.3967 19.486799 -1036.62
22.826401 19.663401 -1036.77
22.2873 19.877399 -1036.9399
21.633801 19.981701 -1036.91
21.032499 20.1203 -1037.02
20.540199 20.414499 -1037.35
19.927299 20.484301 -1037.33
17.7428 20.981199 -1037.58
17.218599 21.1425 -1037.71
12.7482 21.898899 -1037.83
12.2467 21.953199 -1037.79
9.0689096 22.887899 -1037.4399
5.80829 22.710199 -1037.1801
-7.0871 23.6231 -1033.6801
-9.75177 23.2479 -1032.4399
-11.7907 23.1642 -1031.65
-12.8494 23.011 -1030.6899
-13.9019 22.592899 -1029.87
-29.1525 16.7617 -1013.85
31.603701 17.112101 -1033.67
31.044001 17.3799 -1033.99
29.2833 18.3234 -1035.13
28.009701 18.666201 -1035.42
25.7353 19.178301 -1035.6899
25.115999 19.294399 -1035.74
24.5886 19.5201 -1035.99
24.0394 19.7031 -1036.11
23.5109 19.9944 -1036.41
22.884199 20.053699 -1036.42
20.593901 20.7729 -1036.99
19.439199 21.014 -1037.14
18.889299 21.1493 -1037.21
18.3701 21.260099 -1037.26
17.804501 21.373899 -1037.25
17.2325 21.4851 -1037.29
15.6052 21.834499 -1037.21
7.5338101 23.450199 -1036.98
7.03793 23.466 -1036.89
5.8955102 23.1658 -1036.98
4.3604102 23.385099 -1036.87
-3.12341 23.858601 -1034.74
-4.0725098 23.838499 -1034.37
-4.7051401 23.5833 -1034.4301
-7.0628099 24.0058 -1033.35
-12.0897 23.431299 -1030.95
-12.9992 23.3083 -1030.4
32.4244 17.3424 -1033.28
31.891001 17.748199 -1033.83
26.867201 19.203501 -1035.0601
26.425501 19.487301 -1035.39
25.835899 19.578899 -1035.26
25.2747 19.837 -1035.6801
24.676701 19.9786 -1035.8
24.0597 20.0457 -1035.72
23.5833 20.393101 -1036.1899
21.7672 20.7649 -1036.4
20.098 21.263 -1036.52
18.9755 21.6092 -1036.97
18.488199 21.752001 -1037.12
17.9396 21.871401 -1037.15
16.7374 21.9897 -1037.1
11.9457 22.9818 -1036.99
10.881 23.144199 -1036.96
8.0961304 23.6101 -1036.9399
5.0055499 24.179701 -1036.45
4.5299702 24.274401 -1036.47
3.5125999 24.3636 -1036.26
2.02844 24.481899 -1036
-1.60632 24.480101 -1034.96
-4.5279198 24.5159 -1034.0601
-6.2509198 24.539101 -1033.65
-6.9541001 24.276199 -1032.98
35.241699 16.775101 -1031.87
33.726299 17.1206 -1032.2
26.9221 19.629999 -1034.83
26.463699 19.882601 -1034.8199
24.789101 20.4167 -1035.54
23.572901 20.650801 -1035.6
23.1064 21.0215 -1036.0699
22.493799 21.1231 -1036.12
19.613501 21.8895 -1036.34
17.942499 22.2344 -1036.77
16.791401 22.3678 -1036.76
16.336599 22.6485 -1037.0601
14.5792 22.778799 -1036.85
13.0424 23.311899 -1036.8
10.9458 23.950899 -1036.76
7.7638898 24.415501 -1036.59
6.7052598 24.2234 -1036.42
5.8201299 24.2047 -1036.12
1.58682 24.9361 -1035.64
-9.6119404 24.705999 -1031.86
-11.2546 24.4949 -1030.76
-12.1832 24.353901 -1030.23
-12.6621 24.2717 -1029.91
33.782902 17.7258 -1032.0699
33.283699 17.906799 -1032.33
32.315701 18.3869 -1032.78
29.4937 19.6465 -1034.24
28.9216 19.9795 -1034.84
28.2717 20.0842 -1034.85
25.973 20.5263 -1034.73
25.349501 20.569799 -1034.9
24.190901 20.8507 -1035.09
23.7113 21.191601 -1035.51
21.3626 21.9359 -1035.8199
18.5634 22.495501 -1036.39
17.4664 23.069599 -1036.13
15.6785 23.0315 -1036.49
15.2872 23.3496 -1036.48
11.9377 23.780899 -1036.66
10.8339 24.1555 -1036.15
9.7200899 24.3615 -1036.17
7.6977801 24.7195 -1036.09
6.1827698 24.9063 -1035.98
5.13275 25.0065 -1035.83
