# .PCD v0.7 - Point Cloud Data file format
VERSION 0.7
FIELDS x y z
SIZE 4 4 4
TYPE F F F
COUNT 1 1 1
WIDTH 1678
HEIGHT 1
VIEWPOINT 0 0 0 1 0 0 0
POINTS 1678
DATA ascii
-7.2348199 7.5388699 -962.409
-4.3849201 7.3783798 -961.20398
-2.36339 7.2785602 -960.211
-1.03063 7.2319999 -959.96997
-0.0166016 7.2053199 -959.73401
0.56468999 7.1539602 -959.52502
1.09033 7.1311598 -959.21301
1.61886 7.0816202 -959.56702
2.62135 7.0563402 -959.42603
3.05199 7.04565 -959.21997
3.5279701 7.0362902 -959.039
4.0015402 7.00527 -959.23798
4.47439 7.0219402 -958.65302
5.6481299 6.9591498 -958.69299
6.1397099 6.89851 -958.81702
6.7943902 6.8854899 -958.409
8.2682104 6.8243899 -957.84497
8.7153597 6.8206902 -958.49103
9.2473698 6.8006301 -958.58002
10.9176 6.7125602 -958.15698
11.4873 6.7027302 -957.93799
12.0747 6.6736202 -958.25403
12.5048 6.6324 -958.16901
13.1358 6.64007 -957.96301
13.5906 6.5799899 -958.133
14.0883 6.58991 -958.18298
14.6047 6.5880399 -958.23798
15.7721 6.5111799 -958.61298
16.380899 6.51724 -958.26801
16.973801 6.4951901 -958.26501
17.5639 6.46281 -958.47601
17.973 6.4224701 -958.53198
18.6775 6.4353499 -958.83002
19.190201 6.4219098 -958.95801
19.6922 6.40694 -958.80499
20.2355 6.3653002 -959.22101
20.855 6.36761 -959.54498
21.4904 6.3227301 -959.315
22.109699 6.3158598 -959.47601
22.8053 6.2306199 -959.85498
23.358999 6.2782602 -960.008
23.983101 6.2838101 -960.16998
24.624599 6.16745 -960.38397
25.0884 6.2311502 -960.22302
25.633101 6.2279201 -960.64697
26.8694 6.1680102 -961.22498
27.6168 6.0875602 -961.435
28.180799 6.1361198 -961.77197
29.004299 6.0471802 -962.18402
29.5063 6.0307202 -962.28802
30.176901 6.1017098 -962.854
30.8006 6.1044698 -963.10199
31.3978 6.0873699 -963.64099
32.2994 5.9778099 -963.784
33.302299 6.0089102 -964.66998
34.171501 5.9320798 -964.87201
34.763302 5.9742599 -965.41498
35.750702 5.88903 -966.047
36.343399 5.89397 -966.39899
37.715599 5.88902 -967.34302
38.593399 5.8602901 -968.09601
-28.568001 9.7760801 -986.25
-28.1945 9.50949 -985.50403
-27.978701 9.7035799 -984.26398
-27.617201 9.6585703 -983.39697
-26.710899 9.56812 -982.15503
-25.788099 9.3080502 -980.21802
-25.3946 9.2758198 -979.63202
-25.0212 9.2288599 -979.08398
-24.844999 9.3796196 -978.29602
-24.284 9.1679096 -977.83002
-23.904699 9.14958 -977.27301
-23.6987 9.27701 -976.31097
-23.026899 9.0655403 -975.90002
-22.565001 9.0204601 -975.16901
-22.121401 8.9767199 -974.61798
-21.253401 8.93437 -973.59998
-20.843 8.9031496 -973.01398
-20.460501 8.8606195 -972.60699
-20.065599 8.8243399 -972.04498
-19.663 8.8120203 -971.88202
-19.1947 8.7991199 -971.25201
-18.253401 8.7247696 -970.24799
-17.8158 8.6942902 -969.961
-17.329901 8.6669102 -969.422
-16.049601 8.6021996 -968.172
-15.6431 8.5654097 -967.901
-15.2261 8.5349398 -967.59198
-14.7465 8.5000496 -967.28003
-14.2561 8.4728699 -966.82703
-13.7839 8.4694595 -966.59003
-13.0774 8.4680595 -965.84698
-12.5479 8.4398298 -965.59698
-11.8896 8.3398399 -965.14001
-11.4813 8.2994003 -964.78998
-11.0561 8.2749701 -964.32898
-10.615 8.2514601 -964.22601
-10.1225 8.2374296 -964.03302
-9.6289501 8.2032604 -963.79102
-9.1328297 8.1833801 -963.30603
-8.1178598 8.1225901 -962.63202
-5.7727098 8.0080996 -962.24103
-4.3330202 7.9397898 -960.97803
-2.8034401 7.8397102 -960.46399
-2.3392701 7.8429899 -960.34698
-0.84326202 7.7457399 -959.38501
0.58129799 7.6694398 -959.61603
1.1073101 7.6681299 -959.39801
1.65253 7.62848 -959.60999
2.6435599 7.5910301 -959.06201
3.1012199 7.5859098 -958.95502
3.5715201 7.5397401 -958.68402
4.5880098 7.4844499 -958.69702
6.1732798 7.4460802 -958.64099
6.65308 7.4009299 -958.47601
8.2901602 7.36023 -958.039
8.8366699 7.2635398 -958.24701
9.2711496 7.3354001 -958.55701
10.3893 7.2715201 -957.84802
10.9372 7.2809901 -958.22699
11.5177 7.2226 -957.71301
13.1416 7.1588898 -958.29797
14.1112 7.1420598 -958.30402
15.233 7.0780702 -958.29102
16.3916 7.0488801 -958.63898
16.9084 6.95123 -958.474
17.5881 7.0197401 -958.51501
18.181801 6.9935002 -958.81
18.6423 6.9206901 -958.73602
19.220501 6.9611001 -958.86298
19.7367 6.9713998 -958.927
20.2633 6.9454999 -959.08002
20.921 6.79913 -959.14801
21.5207 6.8869901 -959.39502
22.149099 6.8474698 -959.27002
22.797001 6.7112899 -959.81299
24.582399 6.8204398 -960.15399
25.0793 6.6802301 -960.30402
25.661301 6.79076 -960.776
26.304399 6.6434202 -960.758
26.882 6.7456298 -961.40198
27.6635 6.6020999 -961.48999
28.278 6.5698299 -961.75299
28.8641 6.6876202 -962.20898
29.5539 6.5191302 -962.32599
30.218 6.5190201 -962.63501
30.9175 6.5169902 -962.995
32.2836 6.4808202 -963.75897
32.947601 6.4843702 -964.15698
34.269299 6.4402099 -964.99402
34.857601 6.4194102 -965.30402
35.5317 6.53405 -966.10901
36.2813 6.51718 -966.20398
37.163601 6.36129 -967.03601
37.736801 6.4723001 -967.80103
38.435398 6.4589601 -968.17603
40.939499 6.35465 -970.185
-28.8095 10.3029 -987.54901
-27.3715 9.9660501 -983.69098
-26.983801 9.9375095 -982.92297
-25.886499 9.9665699 -980.73199
-25.609301 9.9376602 -979.79303
-24.967699 9.7572403 -978.974
-24.841999 9.8593798 -978.32001
-22.966 9.5811005 -975.84497
-22.5159 9.5490503 -975.211
-21.2209 9.4594097 -973.76001
-20.808901 9.4238005 -973.20502
-20.1768 9.4583397 -972.15302
-19.172899 9.3220701 -971.32599
-18.7036 9.2807903 -970.85999
-18.222601 9.2442198 -970.35303
-17.7609 9.2105703 -969.91199
-16.835699 9.1690998 -969.21899
-16.4219 9.12677 -968.71997
-16.032499 9.10289 -968.50299
-15.6231 9.0770502 -968.09998
-14.711 9.0188704 -967.37903
-14.2499 9.0000496 -967.05798
-13.746 8.9726 -966.44098
-12.3073 8.8651695 -965.508
-11.8733 8.8480501 -965.23297
-11.4612 8.8141403 -964.95697
-11.0647 8.8084002 -964.72198
-10.5976 8.7731104 -964.15698
-10.0658 8.74265 -963.685
-8.59727 8.6918602 -963.117
-8.1307096 8.65098 -963.224
-6.93964 8.6073704 -962.11798
-2.0504799 8.2907696 -960.16602
0.618186 8.2001305 -959.448
1.69521 8.15448 -959.57098
2.67029 8.1104002 -959.30402
3.14505 8.1054602 -958.953
3.53619 8.0225496 -958.77399
4.6096802 8.0345602 -958.44397
5.0221601 7.9376898 -958.52301
5.5609102 7.8948798 -958.5
7.0468798 7.8421302 -958.18701
7.81142 7.8935399 -958.685
8.2986498 7.76724 -958.28101
8.7627602 7.8801799 -958.13898
10.9787 7.7445302 -958.04797
13.1729 7.6900601 -958.086
13.5612 7.5399098 -958.03003
14.1571 7.6492701 -958.05701
14.6656 7.6427102 -958.14001
15.2545 7.6152501 -958.16498
15.846 7.5893002 -958.29199
16.427401 7.5731401 -958.508
17.0186 7.54563 -958.38501
17.494499 7.38938 -958.54797
18.067499 7.3912001 -958.60602
18.7334 7.5009098 -958.79102
19.2425 7.5115499 -958.987
19.754299 7.4713402 -959.151
21.535801 7.41289 -959.39099
22.0912 7.2407799 -959.48199
22.8307 7.2067199 -959.84497
23.4146 7.33781 -960.21899
24.028099 7.3400002 -960.18701
24.544701 7.1825199 -960.20898
25.1486 7.3102002 -960.328
25.68 7.2789502 -960.53802
26.919701 7.2736502 -961.15302
27.582001 7.24189 -961.49799
28.242201 7.23628 -961.46997
28.901899 7.2368598 -961.96802
29.5863 7.2024899 -962.49597
30.266399 7.18963 -962.52899
31.466101 7.1319299 -963.125
32.311501 6.9557199 -963.784
32.913101 6.9621301 -964.10303
33.388302 7.11689 -964.47998
34.276402 6.9054699 -964.992
34.845901 7.07689 -965.46198
35.5952 7.0683899 -965.849
37.097401 7.0095601 -967.03601
37.793999 7.0176601 -967.76398
41.531799 6.8779802 -970.67102
-29.8179 10.9954 -991
-28.6991 10.7073 -987.508
-28.3752 10.6524 -986.552
-28.061701 10.6005 -985.71399
-27.3384 10.5356 -983.91998
-26.925501 10.4978 -982.92297
-26.842199 10.6046 -981.96301
-26.110701 10.3941 -981.22101
-25.7118 10.3641 -980.66803
-25.318199 10.3057 -980.02399
-24.930599 10.2932 -979.22601
-24.844101 10.3811 -978.31897
-24.2171 10.2198 -978.12201
-23.385799 10.1938 -976.76703
-22.9571 10.1081 -976.24103
-22.6336 10.1757 -975.617
-22.0438 10.0503 -974.72498
-21.180401 9.9981298 -973.85199
-20.180099 9.9587402 -972.146
-19.638901 9.9174004 -971.86902
-19.135599 9.8495903 -971.42401
-18.644699 9.8180399 -970.83899
-18.199699 9.7875299 -970.505
-17.729601 9.7451801 -969.94598
-17.253401 9.7093897 -969.41101
-16.7255 9.70644 -968.63
-16.130301 9.6461601 -968.40302
-14.6789 9.5458899 -967.21997
-14.188 9.5229101 -966.83801
-13.7071 9.4816504 -966.46997
-12.7456 9.4372501 -965.85303
-11.8365 9.3815203 -965.29199
-11.6085 9.3769102 -964.87598
-11.0173 9.3330097 -964.67902
-10.5548 9.3041 -964.24103
-10.0402 9.28193 -963.97601
-9.8001699 9.2126102 -963.66803
-8.3835402 9.1575804 -962.87598
-8.0622597 9.1751699 -962.79999
-7.2287002 9.0167503 -962.61499
-6.2638798 9.0723 -961.78699
-4.9293799 8.9609098 -961.33197
-3.78058 8.9530096 -960.91998
-2.2973101 8.8837795 -960.37299
-0.93894798 8.8005695 -960.00201
0.66116202 8.7481203 -959.40002
1.6236 8.5815697 -959.47302
2.2286201 8.6269703 -959.073
2.5559101 8.5565996 -959.086
3.1424501 8.6251898 -958.99902
3.62573 8.5907402 -958.79999
5.7287102 8.4951601 -958.65997
6.2532902 8.4465704 -958.21698
6.8545499 8.44736 -958.51099
7.7055101 8.2855701 -958.27301
8.3400698 8.4036198 -958.03198
8.7005596 8.2456102 -958.01099
10.3505 8.17381 -958.11603
10.9236 8.1459303 -958.15997
12.1322 8.2599096 -958.67102
13.1936 8.2196999 -958.05603
14.1682 8.1872702 -958.16699
14.6908 8.1726904 -958.28198
15.2667 8.13591 -958.297
15.8557 8.1046495 -958.39899
17.0371 8.0643196 -958.58502
17.4795 7.8860202 -958.508
18.239 8.0318699 -958.73999
19.2743 8.01688 -958.77197
19.890699 7.7740598 -958.95001
20.3248 7.9552102 -959.05603
20.943199 7.9457898 -959.39899
21.508499 7.7520499 -959.255
22.1105 7.7432499 -959.461
22.7337 7.7149 -959.67603
23.432501 7.8857198 -960.03601
24.0602 7.8765402 -960.17401
25.302601 7.6189799 -960.54602
25.8668 7.61092 -960.70898
26.294399 7.8239999 -960.89301
26.9494 7.7729602 -961.15002
28.9328 7.7252798 -962.11499
30.3179 7.4950199 -962.73602
30.991301 7.5183702 -963.06
31.707899 7.4788399 -963.46802
32.097599 7.6781902 -963.69397
33.611 7.4303899 -964.53601
34.151299 7.6286502 -964.953
34.8857 7.6034698 -965.69299
37.130001 7.5580301 -967.06702
37.949902 7.3520398 -967.62402
38.476898 7.5661402 -968.104
-28.339701 11.1893 -986.90302
-28.022699 11.1483 -986.05701
-26.876301 11.023 -983.16101
-26.4715 10.9908 -982.276
-26.309401 11.08 -981.49298
-25.672899 10.8952 -980.69
-25.5131 10.9961 -979.98798
-24.5271 10.8165 -978.75897
-24.167999 10.7708 -978.22699
-23.775299 10.7221 -977.52197
-23.3284 10.6897 -976.633
-22.9081 10.6635 -976.16101
-22.4636 10.6331 -975.54303
-22.017799 10.5792 -974.922
-21.1409 10.5212 -973.88702
-20.7311 10.4636 -973.302
-20.3594 10.4405 -972.98401
-19.9657 10.4152 -972.45898
-19.0807 10.3722 -971.43903
-18.616301 10.328 -970.86102
-18.1705 10.3035 -970.52197
-17.684799 10.2662 -969.95801
-16.781799 10.2214 -969.33398
-16.361401 10.1806 -968.85797
-15.9657 10.1608 -968.47699
-15.5518 10.1178 -968.021
-15.3408 10.112 -967.50299
-14.6455 10.0689 -967.33099
-13.6702 10.0003 -966.54303
-13.1983 9.9786797 -966.09998
-11.8065 9.9113197 -965.36798
-11.3852 9.8848 -964.888
-10.8826 9.7834902 -964.93799
-10.5261 9.8347597 -964.39203
-10.2546 9.7805996 -963.95099
-9.5181999 9.7729902 -963.61401
-8.8001699 9.6884899 -963.35199
-7.1103401 9.6353397 -962.49402
-3.7469201 9.4738598 -960.97998
-1.3793 9.3540897 -959.97601
0.162292 9.1626997 -959.88397
0.57604998 9.1356297 -959.66901
1.18822 9.2332497 -959.57202
1.52502 9.1119204 -959.33197
2.23983 9.1697798 -959.19098
2.73383 9.1437302 -959.00403
3.19081 9.1475496 -958.76599
3.6419499 9.1015902 -958.87799
4.2130699 8.9474201 -958.85699
4.6427202 9.0611401 -958.68903
5.2378802 9.0408897 -958.77502
5.7136998 9.0550098 -958.94598
6.2469501 9.0579395 -958.505
8.3614197 8.9110298 -958.125
9.3360996 8.8937998 -958.08698
9.8590803 8.8982 -958.25201
10.4475 8.8538504 -958.58698
11.0102 8.8351698 -958.33502
13.2149 8.7278605 -958.18597
14.2164 8.5467196 -958.12799
15.2883 8.6479502 -958.10901
15.8786 8.4798698 -958.34497
16.471901 8.5943403 -958.46698
17.066099 8.5790596 -958.26801
17.6616 8.5813904 -958.69
18.2451 8.5754404 -958.85498
18.792 8.5416002 -958.60602
19.3015 8.3513298 -958.81897
19.947399 8.3171396 -959.01703
20.361601 8.4959698 -959.30402
21.1161 8.2681303 -959.33099
22.211 8.4381504 -959.62299
22.824699 8.4126501 -959.72601
23.413601 8.1979303 -959.92999
24.0931 8.3766403 -960.23102
24.652 8.3543501 -960.34601
25.1926 8.3535404 -960.54901
25.7379 8.3111095 -960.97101
26.572599 8.0920296 -961.047
27.6406 8.2856197 -961.35999
28.3785 8.0524397 -961.81097
29.048 8.0385904 -962.13501
29.6485 8.2618103 -962.302
30.224701 8.0272102 -962.56799
30.9475 8.19209 -962.841
32.120098 8.2168398 -963.86401
34.430099 7.89816 -965.172
36.412998 8.1219196 -966.552
38.861401 7.9014101 -968.45001
39.925701 8.0704498 -969.21997
40.955799 7.85992 -970.21399
-28.2796 11.7245 -987.06201
-27.9055 11.8148 -986.04498
-27.699301 11.7888 -984.88599
-27.259501 11.7279 -984.17999
-26.809 11.557 -983.07898
-26.7651 11.6788 -982.21802
-24.462999 11.3187 -978.64099
-24.104401 11.308 -978.03601
-23.311899 11.2268 -977.04797
-22.8556 11.2024 -976.276
-22.4086 11.133 -975.53601
-21.983801 11.1036 -975.112
-21.529699 11.0653 -974.33197
-21.088699 11.0566 -973.85101
-20.691401 11.0112 -973.44
-20.326401 10.981 -973.07397
-20.1082 11.0152 -972.28699
-19.509899 10.9485 -971.95502
-19.053499 10.9002 -971.466
-18.593201 10.8638 -971.021
-18.1168 10.8447 -970.43701
-17.6586 10.7855 -970.06201
-17.205999 10.7494 -969.80902
-16.740101 10.7513 -969.31702
-16.314899 10.7065 -968.73401
-15.9207 10.6646 -968.45898
-15.5175 10.6569 -968.09998
-15.1123 10.6062 -967.81799
-14.6126 10.5817 -967.45599
-14.1167 10.569 -966.77502
-13.6486 10.5254 -966.70801
-13.1777 10.4796 -966.30499
-11.7858 10.4297 -965.30798
-11.3686 10.4198 -965.05902
-10.9524 10.3632 -964.74902
-10.5205 10.3644 -964.60101
-10.0105 10.3277 -963.98602
-9.0150995 10.2497 -963.68597
-7.99646 10.2123 -962.776
-3.53333 9.9105501 -960.67102
-0.93896502 9.7631903 -959.88397
0.17359 9.7837696 -959.61401
0.70521599 9.7718096 -959.51801
1.76559 9.7413597 -959.58099
2.7528 9.7105198 -959.06299
3.1854701 9.6812201 -959.16699
4.18014 9.6549702 -959.10999
4.65663 9.6199398 -958.211
5.1602201 9.4777899 -958.58197
5.61694 9.4393301 -958.43298
6.2806201 9.6362104 -958.37903
6.90588 9.6052904 -958.29797
8.7834501 9.3115702 -957.98401
9.8753099 9.4170799 -957.86102
10.4451 9.4026699 -958.10999
11.0278 9.3772001 -957.95697
11.5791 9.3531704 -957.75403
12.1432 9.3537397 -958.211
12.6973 9.3011904 -957.98199
13.2066 9.2843304 -957.97998
13.6958 9.2788401 -957.84003
14.2631 9.0669899 -958.06097
14.7037 9.2532701 -958.138
15.2995 9.2065296 -957.935
15.8762 9.1921701 -958.245
16.4734 9.17768 -958.21399
17.0585 9.1820898 -958.52399
17.6598 9.14995 -958.367
18.254299 9.1356697 -958.61401
18.7817 9.1114101 -958.60602
19.292299 9.1081696 -958.66602
19.8162 9.0809898 -958.76898
20.362301 9.0876703 -959.13898
21.038799 8.8255796 -959.11902
21.5968 9.0164299 -959.37799
22.2286 8.7868204 -959.51001
22.836901 8.9716101 -959.66101
23.4809 8.9697104 -960.15198
24.0975 8.9242401 -959.94098
24.5858 8.7271204 -960.15198
25.2153 8.9082003 -960.49402
25.7542 8.9034901 -960.87799
26.351101 8.8568001 -961.02301
27.006201 8.8369398 -961.52002
27.8027 8.6165304 -961.55902
28.3181 8.7950401 -961.797
29.006599 8.7608805 -962.17798
29.6812 8.5498505 -962.39801
30.3631 8.5593395 -962.75201
30.919201 8.5369196 -962.94098
32.1563 8.7171297 -963.96802
33.072899 8.4826298 -964.24402
34.266701 8.4522104 -964.91901
34.977501 8.6665401 -965.38501
35.801498 8.4230099 -966.04999
37.902901 8.6292696 -967.64801
38.8027 8.4067297 -968.362
-27.314699 12.325 -984.15503
-26.872499 12.2795 -983.48199
-26.638 12.2437 -982.427
-25.7218 12.126 -981.18903
-25.323099 12.104 -980.36902
-24.782301 11.905 -979.38397
-24.5944 12.0121 -978.83002
-23.687099 11.8037 -977.77899
-23.240999 11.7673 -976.88202
-22.8009 11.7419 -976.31897
-22.371201 11.6828 -975.71997
-21.923599 11.6797 -975.00098
-20.663099 11.56 -973.56299
-20.271999 11.5209 -973.02399
-19.887899 11.5118 -972.58502
-19.4872 11.4678 -972.17401
-19.140499 11.4952 -971.53601
-18.5492 11.4147 -971.06201
-18.1068 11.3649 -970.81702
-17.8727 11.4103 -970.20898
-15.8814 11.2112 -968.34497
-15.4828 11.1717 -967.98499
-15.0602 11.1528 -967.77197
-14.7791 11.1874 -967.26001
-14.2693 11.1516 -967.03802
-13.793 11.1093 -966.74298
-13.1373 11.0268 -966.27698
-12.6437 11.0008 -965.78198
-11.8419 10.9819 -965.47803
-11.336 10.9334 -965.04303
-10.9159 10.9148 -964.83398
-10.4711 10.8737 -964.487
-10.2 10.8536 -964.005
-9.4854403 10.826 -964.14801
-9.00842 10.793 -963.86298
-8.2006197 10.7028 -963.02899
-5.22121 10.5885 -961.29401
-4.7985201 10.5542 -962.33301
-4.19734 10.5494 -961.14099
-3.7079501 10.5044 -960.79797
-3.16467 10.447 -961.12097
-2.2274799 10.451 -960.53003
-1.7872699 10.4609 -960.31403
-0.88080502 10.3959 -960.34399
-0.36144501 10.3603 -959.21802
0.155334 10.2747 -959.70398
0.70672399 10.3093 -959.20697
1.6645499 10.1799 -959.27899
2.2792001 10.251 -958.77899
2.7455499 10.2172 -958.70001
3.1849501 10.2113 -958.62097
3.66029 10.1856 -958.45001
4.1315198 10.1517 -958.31403
4.5570102 10.0627 -958.29303
5.1968598 10.1176 -958.45001
5.7472701 10.0932 -958.31201
6.3053799 10.0703 -958.08502
6.7175899 9.9479904 -958.21399
8.91992 9.8408899 -958.01501
9.3004999 9.9448099 -957.72998
9.8478203 9.9132299 -958.05402
10.4277 9.8846502 -957.70898
10.9941 9.8977699 -957.79199
11.3736 9.7340202 -957.74103
12.122 9.84097 -957.98297
12.6808 9.8051596 -957.711
13.1951 9.80937 -958.01599
13.6905 9.8070002 -957.73102
14.6773 9.7474899 -957.98602
15.2914 9.59688 -957.95398
15.8558 9.6814899 -958.02399
16.4555 9.7075901 -958.21899
16.944599 9.5115805 -958.15399
17.4977 9.4744501 -958.22998
18.2239 9.6217899 -958.30603
18.7481 9.6083298 -958.44299
19.786301 9.58109 -958.86499
20.3291 9.5771503 -958.83197
20.953699 9.5433302 -959.10199
22.1887 9.5083904 -959.01398
22.8153 9.5000496 -959.60797
23.435301 9.4997501 -959.99701
24.0616 9.4772501 -959.87701
24.612101 9.2607098 -960.01001
25.179399 9.4247398 -960.16498
25.9547 9.2318001 -960.55798
26.306 9.4167995 -960.68201
27.114 9.2003899 -960.995
27.636801 9.3809004 -961.20099
29.682301 9.1520395 -962.255
30.376699 9.1224804 -962.63397
30.969999 9.3312597 -962.96899
31.7244 9.0797195 -963.38599
32.395302 9.0845604 -963.76501
34.418598 9.0242205 -965.10699
35.046101 9.0432701 -965.47803
35.733898 9.2104301 -966.14899
36.489601 9.1954803 -966.68402
37.3535 8.9941597 -967.237
37.9459 9.1788797 -967.995
-28.763901 12.9049 -989.48401
-28.144501 12.7851 -987.39801
-27.1192 12.6645 -984.58698
-26.3048 12.5828 -982.57202
-25.923901 12.5368 -981.87402
-25.5446 12.4974 -981.24597
-25.1469 12.4509 -980.492
-24.8543 12.6075 -979.80603
-24.032101 12.3398 -978.38898
-23.646099 12.3013 -977.84399
-22.758101 12.2536 -976.33301
-22.3225 12.2057 -975.72198
-21.8953 12.1739 -975.26398
-21.0198 12.1135 -974.03802
-20.8234 12.2119 -973.60797
-20.2491 12.0399 -973.18903
-19.8452 11.9922 -972.55402
-18.9753 11.9415 -971.60797
-18.760599 12.0375 -971.04401
-18.0483 11.8628 -970.53601
-17.380899 11.939 -969.85602
-16.9391 11.8959 -969.38898
-16.2379 11.7538 -968.797
-15.8436 11.7305 -968.46997
-15.4451 11.7076 -968.22101
-15.0298 11.6619 -967.93298
-14.7508 11.7496 -967.28998
-14.0621 11.6022 -967.11902
-13.5825 11.5814 -966.638
-13.4282 11.65 -966.21698
-12.6137 11.5098 -965.96198
-12.1269 11.4839 -965.46399
-11.2851 11.4163 -964.84302
-10.4494 11.3758 -964.62
-8.96035 11.2894 -963.62097
-7.99719 11.3162 -963.29602
-7.0122099 11.2612 -962.75598
-6.6005402 11.1843 -962.22302
-5.7234302 11.1281 -962.05499
-4.7201099 11.0745 -961.56201
-4.2090702 11.044 -961.073
-3.2090099 10.9937 -961.01501
-2.23789 10.9557 -960.18799
-1.80633 10.9381 -960.151
-0.71020502 10.8544 -959.164
0.153807 10.8246 -959.48199
0.67318398 10.8006 -959.27502
1.19587 10.7871 -958.98102
2.70226 10.7 -959.03101
3.12708 10.6756 -958.62402
3.6405301 10.6463 -958.245
4.1128402 10.6308 -958.66699
5.1805201 10.5504 -958.35199
5.7272501 10.515 -958.21198
6.1235399 10.5217 -958.08197
8.8121099 10.4214 -958.05902
9.4006996 10.355 -957.88
11.0017 10.3711 -958.10901
11.9977 10.2339 -957.823
12.6916 10.3196 -957.71698
13.2114 10.2819 -957.79401
13.6875 10.2683 -957.69098
14.1753 10.261 -957.79498
14.7134 10.2457 -957.69598
15.2625 10.226 -957.96802
15.9262 10.1035 -958.08801
16.448099 10.1655 -957.97699
17.0413 10.1562 -958.07397
17.635099 10.1153 -958.065
18.2369 10.121 -958.14099
18.7691 10.0713 -958.34198
19.2565 10.0839 -958.617
19.7813 10.0711 -958.57898
20.500299 9.9157 -958.789
20.9296 10.0306 -959.19299
21.5783 10.0201 -958.90698
22.181601 10.0074 -959.29901
22.812 9.9860601 -959.50598
23.2827 9.8527899 -959.396
23.9265 9.8435497 -959.62402
25.1539 9.9226198 -960.02399
25.943899 9.7693796 -960.43201
26.942499 9.9016895 -960.992
27.6085 9.8690901 -961.14697
28.299999 9.8550396 -961.26599
28.940701 9.8621597 -961.95001
29.6362 9.8395796 -962.28802
30.304199 9.8092003 -962.78198
30.9298 9.8217402 -962.87
31.7857 9.6321297 -963.25598
32.465302 9.6405497 -963.65698
33.077801 9.6363697 -963.99902
33.672901 9.6261797 -964.35498
34.344601 9.6149702 -964.83899
34.9716 9.7649403 -965.52502
37.281601 9.6877298 -967.36798
37.992199 9.6760197 -967.92999
39.003799 9.5620804 -968.64001
-28.677999 13.4515 -989.62201
-28.507299 13.6487 -988.66199
-27.785 13.3059 -986.64203
-27.216101 13.4516 -984.47101
-26.1712 13.3222 -981.935
-25.0716 12.9992 -980.39301
-24.6996 12.9392 -979.72803
-24.3463 12.9376 -979.117
-23.964701 12.8907 -978.32599
-23.701599 13.0714 -977.69897
-22.719601 12.7587 -976.44897
-20.5819 12.6022 -973.664
-20.200899 12.5565 -973.17603
-19.8057 12.5174 -972.59302
-19.403601 12.4756 -972.177
-18.9237 12.4759 -971.44702
-18.465401 12.4298 -971.078
-18.018499 12.4091 -970.77698
-17.5474 12.3741 -970.15698
-17.1001 12.3306 -969.84497
-16.224899 12.2718 -969.16302
-15.8064 12.2289 -968.57397
-15.4165 12.2109 -968.315
-15.0026 12.1801 -967.95398
-14.5035 12.2926 -967.67798
-14.0268 12.1338 -967.06897
-13.0779 12.0562 -966.35797
-12.5961 12.0286 -966.09998
-11.2701 11.9396 -965.08099
-10.8636 11.9236 -964.87903
-9.4384604 11.8546 -963.90399
-8.9441299 11.8176 -963.38501
-8.0134897 11.854 -963.16901
-7.0420399 11.7237 -962.409
-6.6295199 11.6981 -962.245
-5.7368398 11.6384 -961.69702
-2.69539 11.5093 -960.336
-2.2698801 11.485 -960.33698
-1.3750499 11.431 -959.96997
-0.877078 11.401 -959.60199
-0.36532399 11.3577 -959.05701
0.26141399 11.3762 -959.65399
0.68864298 11.305 -959.08801
1.73715 11.2708 -959.01099
2.26124 11.2399 -958.85199
2.73265 11.2406 -958.83698
5.0809898 11.1536 -958.138
9.35291 10.9225 -957.70502
10.8293 10.8491 -957.526
11.3561 10.8261 -957.47302
12.152 10.8512 -957.86603
12.7356 10.8292 -957.90997
13.708 10.794 -957.56702
14.1992 10.7978 -957.76599
16.453899 10.6207 -957.98499
18.688 10.5619 -958.224
19.7985 10.6092 -958.56897
20.3538 10.5498 -958.638
21.5909 10.5296 -958.91302
22.2283 10.5289 -959.362
22.6236 10.4366 -959.03302
23.955099 10.3803 -959.63
24.644899 10.4282 -959.73499
25.1514 10.3715 -959.927
25.725901 10.4122 -960.58099
26.311899 10.3907 -960.62799
26.9583 10.391 -960.85199
27.684601 10.3169 -961.02399
28.2899 10.3615 -961.12799
29.0338 10.2805 -961.71198
29.644699 10.2552 -961.97198
30.280701 10.314 -962.263
31.0443 10.2786 -962.70502
31.525101 10.3006 -963.07001
32.729698 10.2585 -963.78497
34.379101 10.1595 -964.72601
35.0369 10.1532 -965.14801
35.839401 10.156 -965.79303
36.465099 10.2799 -966.703
37.461498 10.1147 -967.16302
37.981602 10.2532 -967.94702
-27.724501 13.8393 -986.92603
-26.212799 13.6316 -983.08301
-24.666599 13.4829 -979.98297
-24.2969 13.4476 -979.25702
-23.9268 13.4113 -978.60797
-23.1269 13.3471 -977.31
-22.677 13.3081 -976.56598
-22.238899 13.2741 -975.87402
-20.164 13.0944 -973.36798
-19.7593 13.0606 -972.57501
-18.9091 12.992 -971.90601
-18.444201 12.9472 -971.35999
-17.9753 12.9078 -970.69299
-17.526699 12.8818 -970.38702
-15.7657 12.7346 -968.47101
-15.3834 12.7211 -968.32001
-14.9509 12.694 -967.84601
-14.4815 12.6663 -967.31598
-12.5715 12.5509 -966.22601
-12.1051 12.5343 -965.55902
-11.6648 12.507 -965.12799
-11.2553 12.4742 -964.83099
-10.8566 12.4484 -964.61902
-10.4262 12.4059 -964.388
-9.9391899 12.3788 -963.91101
-9.5139198 12.4652 -963.80298
-8.9538002 12.3365 -963.27698
-7.9689102 12.2781 -962.72803
-7.1124902 12.2907 -962.39099
-6.2055502 12.16 -961.86401
-2.3731101 12.0711 -960.10101
-1.33634 11.957 -959.66699
-0.850721 11.9598 -959.34698
-0.356226 11.9075 -959.35999
0.192543 11.8685 -959.16498
0.70478201 11.8598 -959.29401
1.21793 11.8152 -958.90997
1.7568099 11.8 -959.03497
2.2804599 11.7777 -958.896
3.2042899 11.7358 -958.56
3.68713 11.7167 -957.87701
4.6900101 11.7264 -957.72101
5.2128901 11.6618 -957.784
5.7038298 11.6345 -958.263
6.28968 11.6876 -957.60602
7.8592401 11.5267 -957.66199
8.7720499 11.4719 -957.40399
9.2813501 11.445 -957.41998
9.7472496 11.4296 -957.23602
10.4091 11.3966 -957.51099
10.9523 11.365 -957.37903
11.388 11.3443 -957.29602
12.0738 11.3224 -957.487
12.6402 11.2929 -957.242
13.1371 11.2649 -957.53802
13.6298 11.2766 -957.39099
14.1148 11.2377 -957.349
14.6888 11.1838 -957.32098
15.2133 11.1752 -957.35699
15.7911 11.1718 -957.27802
16.363001 11.1492 -957.56403
16.9722 11.135 -957.591
17.5583 11.1141 -957.65997
18.0518 11.1078 -957.755
18.689699 11.0982 -958.03699
19.7155 11.0772 -958.13501
20.245399 11.0571 -958.38202
20.888201 11.037 -958.32501
21.4559 10.9555 -958.41498
22.138399 11.0172 -958.81
24.028601 10.9936 -959.646
24.574301 10.8912 -959.47302
25.1514 10.9584 -960.13702
25.891001 10.8715 -959.99298
26.369801 10.8677 -960.04401
27.212601 10.8195 -960.66699
27.8337 10.8108 -961.01599
28.875299 10.7854 -961.29102
30.5854 10.7982 -961.966
32.8661 10.7465 -963.55603
35.1022 10.6822 -965.159
35.822399 10.6665 -965.685
-28.609699 14.2946 -990.32001
-28.386801 14.7395 -989.06201
-28.049601 14.665 -987.82703
-25.7742 14.1289 -982.47498
-25.368099 14.0922 -981.54102
-24.600901 14.0197 -979.99902
-23.8806 13.9255 -978.65997
-23.0776 13.8522 -977.38501
-22.6378 13.828 -976.70203
-22.184799 13.7789 -975.94299
-21.7607 13.7345 -975.427
-19.726299 13.5836 -972.79102
-19.330799 13.5502 -972.53497
-18.889601 13.6548 -971.94702
-17.941099 13.4321 -970.93402
-17.495001 13.3851 -970.51703
-15.7617 13.2698 -968.78497
-15.3545 13.2425 -968.24902
-14.4669 13.2116 -967.45801
-13.9952 13.176 -967.03497
-13.5105 13.1346 -966.52301
-13.0562 13.0987 -966.15997
-12.5746 13.0546 -965.742
-11.6888 13.0023 -965.09497
-11.2827 12.991 -964.88702
-10.887 12.9473 -964.685
-10.4433 12.9308 -964.28302
-9.9403 12.9119 -963.82001
-9.4639797 12.8959 -963.71698
-8.9649897 12.863 -963.34802
-8.4683599 12.8122 -962.90198
-8.1265297 12.8813 -962.89099
-6.6027999 12.7446 -961.97998
-3.1664901 12.5798 -960.51001
-2.6647999 12.5014 -960.25299
-2.4005101 12.523 -959.94098
-1.8214999 12.4515 -960.177
-1.34768 12.4281 -959.54102
-0.89018399 12.3955 -959.48297
-0.36906901 12.3703 -959.435
0.119038 12.3529 -959.27698
1.20245 12.3068 -958.65698
2.5058 12.2558 -958.25201
3.12569 12.2259 -958.13599
3.58495 12.1838 -958.07898
4.0796499 12.1943 -957.92603
4.5980301 12.1455 -957.62598
6.2259898 12.0945 -957.46503
7.8144798 12.0072 -957.18201
8.2376699 11.9944 -957.32001
8.72124 11.9669 -957.28601
10.3334 11.9074 -957.742
10.8947 11.8834 -957.20398
12.0383 11.8396 -957.49298
12.5855 11.8312 -956.91498
13.0983 11.8012 -957.03302
13.5855 11.787 -957.25702
14.0822 11.7557 -956.84399
14.683 11.711 -957.18701
15.1613 11.7335 -957.07001
15.6716 11.6916 -957.18103
16.3449 11.6921 -957.40503
16.9207 11.6665 -957.20502
17.494801 11.5952 -957.60498
18.1015 11.6351 -957.81201
18.6192 11.6155 -957.91699
19.6443 11.6082 -958.15601
20.195499 11.5618 -958.16199
20.807899 11.5607 -958.03003
21.4114 11.5115 -958.36298
22.046301 11.5175 -958.51099
22.656799 11.493 -959.06097
23.312901 11.4874 -958.83899
23.8752 11.413 -958.979
25.028099 11.4207 -959.38
25.7276 11.3495 -959.57098
26.3652 11.3063 -959.86603
26.941299 11.2939 -960.07001
27.482901 11.3031 -960.23401
28.163799 11.2715 -960.62701
28.7621 11.2806 -960.84003
29.526899 11.3022 -961.32001
35.6241 11.1895 -965.31201
36.300999 11.2064 -965.79797
37.114601 11.1885 -966.47498
-26.881399 14.8448 -985.26501
-26.494699 14.811 -984.22699
-26.097799 14.7584 -983.26599
-24.915701 14.5963 -980.81403
-24.194099 14.5252 -979.49298
-23.831699 14.5091 -978.87799
-23.0301 14.4067 -977.64001
-22.679399 14.5412 -976.93103
-21.5452 14.4102 -975.01703
-21.039499 13.8707 -974.54999
-20.4576 14.1777 -974.00098
-19.6954 14.1022 -973.02899
-19.2763 14.0765 -972.44299
-18.8176 14.0399 -971.87
-18.366899 14.0079 -971.41199
-17.9039 13.9778 -970.82898
-17.3104 14.0305 -969.82001
-16.134199 13.8482 -968.836
-15.892 13.9177 -968.49103
-14.9546 13.7575 -967.66302
-14.4881 13.7356 -967.27197
-13.9992 13.6932 -966.73901
-13.2741 13.7198 -966.11902
-12.5787 13.6009 -965.63
-11.8989 13.6385 -965.04401
-11.2731 13.5266 -964.677
-10.8342 13.5166 -964.42102
-10.4079 13.4932 -964.25
-9.89042 13.4997 -963.599
-9.4006796 13.463 -963.24799
-8.4381199 13.379 -962.92603
-6.6099901 13.2544 -961.84601
-6.1592898 13.2129 -961.49402
-5.7040901 13.1528 -961.04999
-5.2300801 13.1294 -961.06598
-4.2343302 13.0923 -960.69397
-4.0109301 13.1079 -960.27002
-2.90851 13.0151 -960.02197
-2.2883101 13.012 -959.77502
-1.8424 12.9866 -959.55499
-1.3873 12.9513 -959.22998
-0.92285299 12.9286 -959.23499
0.108361 12.8732 -958.89203
0.64222199 12.8514 -958.64301
1.16687 12.8383 -958.40601
1.6751699 12.8154 -958.58698
2.42609 12.7571 -958.021
3.1066799 12.7553 -958.27197
3.55987 12.735 -958.14697
4.0513902 12.6962 -958.05402
4.5838799 12.6875 -957.51898
5.1231198 12.6423 -957.71997
5.4812598 12.6183 -957.43402
6.20573 12.6171 -957.19501
7.29175 12.5475 -956.875
7.7906299 12.5485 -957.07898
8.24436 12.5044 -957.15503
8.7024498 12.4834 -957.24701
10.3309 12.4405 -957.32898
10.8541 12.3532 -957.07001
12.1254 12.2985 -957.32599
12.5706 12.3707 -956.57501
13.0638 12.3492 -957.12299
13.5661 12.3204 -956.987
14.6849 12.19 -957.08698
15.7344 12.2442 -957.112
16.3253 12.126 -957.29901
16.889299 12.2117 -957.35699
17.507099 12.2001 -957.62201
18.0937 12.1922 -957.37097
18.6122 12.1692 -957.63098
19.283899 12.0381 -957.77399
19.630899 12.1364 -957.87598
20.176701 12.1279 -957.78101
20.7803 12.0886 -957.96698
21.389799 11.9744 -958.06
22.0385 12.0544 -958.31702
22.5951 11.9349 -958.40399
23.8724 11.918 -958.84601
24.455299 11.9975 -959.22601
25.010099 11.884 -959.10303
25.6996 11.8588 -959.40002
26.349501 11.8294 -959.70801
26.765499 11.9588 -960.03302
27.445601 11.9276 -960.133
28.0907 11.9061 -960.40302
28.8016 11.7788 -960.76801
29.444901 11.8732 -961.28998
30.1294 11.8932 -961.44598
30.749399 11.7536 -961.68799
31.517799 11.7225 -962.19098
32.555901 11.8045 -962.87701
33.460701 11.7061 -963.32703
34.030102 11.8156 -963.81598
35.605202 11.8724 -965.19501
-28.569599 15.8248 -990.80298
-26.8078 15.3801 -985.33301
-26.153299 15.4784 -983.64502
-25.2665 15.1762 -981.96198
-24.8542 15.1118 -980.91302
-24.496401 15.0849 -980.23999
-24.152201 15.0683 -979.664
-23.159401 15.0522 -977.45001
-22.5396 14.8894 -977.04401
-21.6749 14.8035 -975.64502
-21.249201 14.7728 -975.18597
-20.414499 14.7065 -973.96002
-19.6432 14.6386 -972.89398
-18.806101 14.5828 -972.01202
-17.891701 14.5112 -970.69702
-17.4617 14.4654 -970.16101
-17.0151 14.4306 -969.70001
-16.3929 14.4278 -968.80499
-15.7605 14.3338 -968.37402
-15.3692 14.3035 -968.03699
-14.9623 14.2732 -967.75403
-14.4894 14.2395 -967.38501
-13.9987 14.2139 -966.935
-13.5044 14.2165 -966.479
-13.0214 14.1883 -965.90698
-12.0812 14.1154 -965.44
-11.6374 14.1126 -965.01801
-11.2284 14.0667 -964.89301
-10.827 14.0238 -964.43799
-10.553 13.9833 -963.84198
-9.9299698 13.9028 -963.55902
-9.6140099 13.8881 -963.39301
-8.4703798 13.8266 -962.68103
-7.9832201 13.8017 -962.573
-7.0529099 13.7555 -961.87097
-6.6314301 13.7323 -961.54401
-6.1964102 13.7204 -961.24402
-5.7656002 13.6705 -961.19098
-5.2551599 13.6821 -960.92603
-4.7540102 13.6471 -960.65802
-4.2360001 13.6178 -960.409
-3.7353001 13.5995 -960.17297
-3.4564199 13.5525 -960.02802
-2.7235701 13.5325 -959.80402
-1.84136 13.4909 -959.34399
-1.40956 13.4893 -959.21301
-0.94667399 13.4548 -959.21802
-0.43042001 13.3724 -958.97101
0.111719 13.4118 -958.59497
0.63221002 13.3913 -958.64899
1.16299 13.3591 -958.33398
2.4691801 13.2143 -957.98297
3.1206 13.2626 -957.72998
3.5594499 13.2373 -957.78497
4.0339198 13.2345 -957.96899
5.1269598 13.1664 -957.58197
5.6677599 13.1412 -957.36798
6.2127299 13.1087 -957.013
6.7439599 13.093 -957.383
7.2859902 13.0851 -956.95001
7.76789 13.0796 -957.19501
8.22542 13.0265 -956.94
10.3159 12.9764 -957.37299
10.8743 12.9503 -957.00598
13.5368 12.8544 -957.026
14.1189 12.7014 -956.909
15.7283 12.6329 -957.073
16.309999 12.738 -957.237
16.764601 12.6152 -957.08099
17.489901 12.7258 -957.38
18.075899 12.7025 -957.23999
18.555 12.5261 -957.40601
19.171101 12.52 -957.53302
19.6222 12.641 -957.47699
20.152901 12.6134 -957.88898
20.7726 12.6094 -957.84601
21.399599 12.6062 -957.81097
21.9667 12.4541 -958.09399
22.563801 12.4333 -958.263
23.237101 12.5517 -958.74597
23.886101 12.5386 -958.75598
24.444201 12.5242 -958.88
24.964001 12.5108 -959.31
25.5186 12.4909 -959.07001
26.0896 12.5185 -959.67401
26.7565 12.4626 -959.89899
27.4069 12.4665 -960.27399
28.084101 12.4517 -960.35602
28.797701 12.2361 -960.65601
29.4076 12.4373 -960.995
30.0814 12.4545 -961.42102
30.6989 12.3856 -961.492
31.400101 12.2127 -961.88599
32.1917 12.196 -962.41101
32.528198 12.3705 -962.66498
33.469299 12.1858 -963.17999
34.069199 12.1806 -963.539
34.702301 12.1625 -963.94299
-27.136801 16.134899 -986.53998
-26.1971 15.9797 -983.659
-25.7013 15.9178 -982.97302
-25.342501 15.8572 -982.159
-24.8006 15.6972 -981.13202
-24.4534 15.6506 -980.53198
-24.0959 15.6309 -979.84497
-23.508801 15.6223 -978.177
-22.920401 15.4779 -977.75702
-22.7159 15.5447 -976.979
-21.6464 15.3644 -975.92401
-21.2003 15.3451 -975.07599
-20.774799 15.2928 -974.42297
-20.3946 15.2586 -973.81097
-20.0418 15.2285 -973.46503
-19.7251 15.2358 -972.69598
-19.2565 15.1418 -972.17999
-18.8106 15.1117 -971.53601
-18.374399 15.0834 -971.26202
-17.914 15.0435 -970.58099
-17.4517 15.0038 -970.00598
-16.5476 14.9478 -969.23999
-16.1252 14.9131 -968.65601
-15.729 14.8896 -968.362
-15.5073 14.8759 -967.87799
-14.4484 14.7984 -967.26898
-13.94 14.765 -966.79401
-13.023 14.6639 -965.94098
-12.5475 14.644 -965.39203
-11.7148 14.5562 -964.94598
-10.8686 14.5037 -964.112
-10.4406 14.5131 -963.94897
-10.0567 14.4497 -963.48297
-9.4715796 14.4307 -963.23901
-8.97087 14.4072 -962.82202
-7.9946799 14.3384 -962.40002
-6.6407599 14.2829 -961.40997
-6.2041602 14.2758 -961.32202
-5.9609399 14.1821 -960.79498
-4.7488499 14.1848 -960.38
-4.2515702 14.1674 -960.34802
-3.74681 14.1383 -959.99402
-3.2497101 14.0994 -959.88
-2.7309899 14.0747 -959.591
-2.4563601 13.9832 -959.51599
-1.83453 14.0159 -959.02197
-1.41085 13.9945 -959.06403
-0.94548303 13.9655 -959.14301
-0.426516 13.9572 -958.69098
0.077819802 13.8361 -958.784
0.53338599 13.8255 -958.59302
0.99359101 13.8018 -958.37598
2.19786 13.8269 -957.974
2.6480701 13.814 -958.13202
3.10182 13.8002 -957.78699
3.5927701 13.662 -957.72998
4.0307202 13.7371 -957.802
4.57722 13.705 -957.27899
5.1069198 13.7015 -957.55603
5.54456 13.5829 -957.34497
6.51263 13.5243 -957.07898
7.7502999 13.5146 -956.83197
11.4369 13.4364 -956.70502
13.1118 13.2351 -956.99103
13.5523 13.3676 -956.85303
14.5761 13.3498 -957.03601
15.7333 13.3005 -956.89398
16.303301 13.2878 -957.138
16.877899 13.275 -957.047
17.488701 13.2506 -957.28003
18.065001 13.2193 -957.367
18.5987 13.2141 -957.35101
19.098301 13.1842 -957.60101
19.684799 13.0281 -957.43701
20.1555 13.1676 -957.68903
20.7705 13.1535 -957.617
21.3941 13.1514 -957.87097
22.580299 12.9241 -958.20697
23.1898 12.9123 -958.39301
23.848301 13.0614 -958.56702
24.3846 12.8675 -958.69098
24.9554 13.0274 -959.08398
25.741301 12.8457 -959.25201
26.300501 12.8311 -959.40802
26.7318 13.0252 -959.71698
27.400801 12.989 -959.87097
28.054501 12.975 -960.383
28.7283 12.9878 -960.54102
29.392401 12.9572 -960.72101
31.267599 12.9247 -961.84003
32.187 12.7035 -962.30402
32.818901 12.6956 -962.65198
33.377701 12.6823 -962.935
33.932301 12.8959 -963.479
34.730701 12.6708 -963.85101
35.342999 13.1834 -964.10303
36.187099 12.6599 -964.94
36.9557 12.6698 -965.53802
37.609699 12.6483 -966.02301
-26.5679 16.6033 -986.073
-25.5348 16.310301 -983.12402
-25.129601 16.2605 -982.02002
-25.0912 16.3521 -981.14697
-24.0362 16.1416 -979.93201
-22.8724 16.021799 -977.81702
-21.613001 15.9163 -975.59998
-21.3444 15.9145 -975.164
-20.408199 15.785 -973.74103
-20.052 15.7399 -973.35999
-19.658001 15.7174 -972.745
-18.808901 15.6227 -971.64697
-18.3424 15.6022 -971.125
-18.1024 15.5933 -970.69897
-17.4205 15.5521 -970.086
-16.9484 15.5228 -969.45599
-15.7246 15.4098 -968.45697
-15.3219 15.3725 -967.89203
-14.9195 15.3535 -967.57397
-14.4733 15.2769 -967.13098
-13.9876 15.2756 -966.492
-13.5159 15.2069 -966.07501
-13.0646 15.17 -965.79401
-12.8571 15.1757 -965.40698
-11.6841 15.1207 -964.70801
-11.2635 15.0792 -964.20801
-10.8699 15.0773 -963.97803
-10.5833 15.0164 -963.56598
-9.9602098 15.0121 -963.47302
-9.6359901 14.9527 -963.09399
-9.2453604 14.9062 -962.69897
-8.6503296 14.8733 -962.60303
-7.9795499 14.8901 -962.06
-7.0620999 14.8184 -961.60797
-6.6433902 14.8025 -961.38397
-6.2023902 14.7699 -961.03802
-5.7718501 14.7511 -961.03198
-4.7505598 14.7015 -960.29199
-4.2561102 14.6826 -960.18799
-3.7481401 14.6479 -959.935
-3.2402999 14.6087 -959.71802
-2.4658201 14.4634 -959.422
-1.4172 14.5106 -958.95801
-0.84106398 14.3711 -959.06
-0.41959301 14.4567 -958.84698
0.083578996 14.4532 -958.65698
0.61012 14.4004 -958.52399
1.6708601 14.3671 -958.177
2.6689701 14.3121 -957.651
3.08831 14.309 -958.01599
4.05232 14.2529 -957.771
4.5200601 14.2507 -957.85797
5.1145601 14.0685 -957.479
5.6837201 14.2578 -957.03998
6.6725502 14.018 -957.26703
12.0637 13.9623 -956.617
13.5664 13.9197 -957.02502
14.0764 13.7507 -956.763
14.5771 13.8687 -957.18597
15.7509 13.8314 -957.10699
16.312401 13.8164 -956.875
16.9021 13.8141 -957.34698
17.507999 13.7637 -957.10602
18.0354 13.5761 -957.28601
18.557301 13.5532 -957.29102
19.122499 13.7152 -957.13501
19.785801 13.5173 -957.53003
20.1714 13.6897 -957.69702
20.781 13.6888 -957.76703
21.408501 13.6754 -957.89301
22.022301 13.6496 -957.78998
22.6336 13.6208 -957.979
23.250401 13.623 -958.409
23.8871 13.5987 -958.62903
24.4471 13.578 -958.70001
24.9874 13.5739 -958.93799
26.0811 13.554 -959.38
27.518101 13.3175 -959.86798
28.062099 13.2914 -960.04498
28.7232 13.4911 -960.41602
29.3403 13.261 -960.625
30.0392 13.4659 -961.29303
30.771999 13.2094 -961.414
33.405899 13.7105 -962.80798
34.158798 13.1849 -963.42297
34.645302 13.1949 -963.60999
36.1679 13.4042 -964.87701
38.434898 13.1495 -966.57599
-26.717199 17.1665 -985.90503
-26.152599 17.036501 -983.89801
-25.749201 17.014099 -983.08197
-25.2742 16.927799 -982.38599
-24.691999 16.7393 -981.59497
-24.547501 16.831301 -980.685
-24.1115 16.774 -979.95001
-23.632401 16.651199 -979.39697
-23.315701 16.673599 -978.38098
-22.870399 16.5527 -977.68799
-22.325399 16.5441 -976.09802
-21.6092 16.4056 -975.383
-21.197399 16.368299 -974.81702
-21.0474 16.387899 -974.26001
-20.3776 16.283899 -973.52802
-19.207399 16.221399 -972.19598
-18.770599 16.1991 -971.82599
-17.868401 16.106199 -970.70398
-17.429501 16.055599 -969.94897
-16.9825 16.0214 -969.40997
-16.5418 15.9771 -968.92102
-15.7577 15.9071 -968.13702
-14.931 15.8531 -967.23401
-14.6586 15.8244 -966.73798
-14.0018 15.783 -966.36902
-13.5223 15.7493 -965.995
-13.06 15.7092 -965.65997
-12.8384 15.6752 -965.34302
-12.1229 15.6412 -965.00598
-11.281 15.6058 -964.16803
-10.9659 15.535 -963.86401
-10.5296 15.5225 -963.53497
-10.1563 15.4731 -963.14398
-9.4570503 15.4861 -962.94397
-8.9765396 15.4683 -962.65503
-8.4878101 15.4475 -962.39697
-7.5036702 15.3874 -961.84698
-7.0573301 15.3758 -961.49103
-6.7905302 15.2705 -961.30798
-6.2263799 15.3162 -961.09601
-4.7521801 15.2065 -960.22302
-3.23437 15.1361 -959.65503
-0.94084001 15.0339 -958.901
0.114361 14.9714 -958.56403
0.51495397 14.8455 -958.44897
1.6978 14.9175 -958.18799
2.20925 14.8679 -957.948
2.6698799 14.8457 -958.03302
3.12693 14.8362 -957.80298
3.5917101 14.8216 -957.73798
4.1235499 14.7859 -957.591
4.5543499 14.7748 -957.51801
5.1717501 14.6134 -957.52002
12.082 14.5096 -957.13397
13.069 14.2586 -956.84601
13.5926 14.43 -956.73401
14.0804 14.4163 -956.83197
15.1738 14.3808 -956.71698
15.7669 14.3437 -957.19
16.346901 14.3215 -957.05499
17.5383 14.2998 -957.41803
18.129601 14.2746 -957.271
18.652 14.2799 -957.32397
19.1429 14.2337 -957.42603
19.868099 14.0206 -957.65399
20.2068 14.2446 -957.83502
20.9279 13.9732 -957.797
22.057501 14.1692 -958.09497
22.6537 14.1602 -958.23199
23.2834 14.1453 -958.58002
23.893499 14.1288 -958.81097
24.4592 14.0869 -959.047
24.991699 14.0756 -958.98199
25.745501 13.8542 -959.177
26.113501 14.0782 -959.26801
28.076 14.0196 -960.23602
28.735001 14.0189 -960.46899
29.3946 13.798 -960.65698
30.0753 14.0061 -961.00403
30.733801 13.7529 -961.30902
31.4904 13.7346 -961.74701
33.905499 13.9482 -963.40302
34.6488 13.9236 -963.64697
35.3773 13.9637 -964.34003
38.270699 13.9106 -966.16901
-27.010799 17.8165 -988.62299
-26.6094 17.710699 -986.24701
-26.396999 17.6702 -985.06403
-25.9967 17.6245 -984.21899
-25.2974 17.525801 -982.32001
-24.8965 17.4779 -981.42798
-22.866899 17.086399 -977.48401
-22.460899 17.020399 -976.875
-21.5858 16.9291 -975.341
-20.7505 16.865499 -974.38501
-19.2236 16.74 -972.18402
-18.7882 16.6931 -971.505
-18.3563 16.639601 -970.94702
-17.882401 16.580299 -970.20502
-17.446699 16.590599 -969.87201
-17.003201 16.533899 -969.422
-16.5457 16.506201 -968.82703
-16.1383 16.4834 -968.28601
-15.8349 16.4737 -968.09399
-15.3702 16.4167 -967.61603
-14.9398 16.3818 -967.15002
-14.466 16.3459 -966.68597
-13.9982 16.3116 -966.26501
-13.5293 16.284599 -966.02698
-13.0544 16.246201 -965.59302
-12.591 16.2293 -965.07599
-12.115 16.191099 -964.75
-11.2906 16.123699 -964.16803
-10.8722 16.0945 -963.75201
-10.4477 16.084 -963.63501
-9.9354095 16.061899 -963.04199
-9.4579897 16.0336 -962.94397
-8.95502 15.9888 -962.41302
-8.4278603 15.9132 -961.71698
-7.0495 15.8763 -961.50299
-6.65135 15.8494 -961.43701
-2.2537999 15.6103 -959.52899
-1.8270299 15.6014 -959.30798
-1.37967 15.5685 -959.19
-0.400947 15.5367 -958.98499
1.72184 15.4242 -958.39801
1.9165 15.3455 -957.849
2.6988599 15.3746 -957.992
3.1494401 15.3618 -957.82001
3.59027 15.2466 -957.633
4.13867 15.327 -957.664
4.5826201 15.3044 -957.30103
5.1827502 15.2453 -957.39398
5.7237401 15.2626 -957.10797
6.8694601 15.187 -956.66803
11.5291 15.0298 -956.62
13.6211 14.967 -956.625
14.109 14.9382 -956.76801
14.7654 14.768 -956.94598
15.3314 14.7679 -957.01099
15.7979 14.8678 -957.19202
16.3804 14.8403 -957.22601
16.9681 14.8386 -956.92102
18.165199 14.8147 -957.08698
18.684799 14.8076 -957.39697
19.186899 14.7811 -957.51001
19.708099 14.766 -957.45502
20.240601 14.7659 -957.69702
20.857599 14.749 -957.80798
21.483101 14.7199 -957.73401
22.081499 14.6972 -958.16302
22.6775 14.5015 -958.24902
23.214399 14.5045 -958.32098
23.9522 14.6547 -958.68701
24.5172 14.6406 -958.64301
25.9454 14.4217 -959.43402
26.796301 14.6006 -959.56598
27.5417 14.3989 -959.862
28.112 14.3955 -960.03802
28.7964 14.3338 -960.396
29.430401 14.5565 -960.883
30.1133 14.5258 -960.90198
30.662201 14.3431 -961.19598
31.421301 14.3241 -961.62598
32.068298 14.3319 -961.95898
32.539501 14.4973 -962.396
33.470798 14.2985 -962.87598
34.791302 14.2553 -963.69897
35.387699 14.4678 -964.16602
36.062599 14.2525 -964.48999
36.906601 14.4627 -965.328
-26.844601 18.3514 -987.51501
-26.4589 18.1077 -986.59698
-25.493 18.1334 -983.46301
-24.473499 17.948 -980.54999
-23.653299 17.866899 -979.00201
-23.2771 17.6262 -978.41101
-22.414101 17.5583 -976.90503
-20.7351 17.380501 -974.05402
-20.378201 17.3346 -973.56403
-19.998699 17.2754 -972.85797
-18.8057 17.197599 -971.35199
-18.355 17.1441 -970.78601
-17.8944 17.104099 -970.19397
-17.4611 17.0909 -969.92401
-17.0047 17.033501 -969.29102
-16.834499 17.114901 -968.71802
-16.142 16.972 -968.27197
-15.7598 16.931 -967.99103
-14.4924 16.8589 -966.763
-13.9996 16.8165 -966.35199
-13.5247 16.798401 -965.87299
-13.0671 16.753 -965.56598
-12.5923 16.709801 -964.979
-12.1078 16.6992 -964.56201
-10.8562 16.6178 -963.763
-10.4263 16.5732 -963.60602
-9.9303703 16.538401 -963.18298
-9.4222898 16.510099 -962.78101
-8.9442797 16.491199 -962.60797
-8.4496002 16.439501 -962.24902
-7.9345899 16.4247 -961.70801
-6.6039901 16.3482 -961.28302
-1.34587 16.0776 -958.98102
1.74315 15.9362 -958.66803
2.7402201 15.8971 -957.91498
3.17981 15.8672 -957.72699
3.64007 15.8335 -957.73401
4.1722698 15.8364 -957.94598
4.6090102 15.7859 -957.46301
5.1619802 15.8228 -957.84698
5.7035599 15.8233 -957.755
6.2609801 15.749 -957.00403
6.8956299 15.7907 -956.974
9.7546997 15.5305 -956.69299
11.5436 15.5266 -956.716
12.676 15.4939 -956.46399
13.0164 15.3988 -956.703
13.6185 15.3718 -956.78699
14.1298 15.4376 -957.14801
14.655 15.4202 -957.20599
15.2375 15.4072 -956.53998
15.8395 15.3828 -957.02197
16.4132 15.3816 -957.07703
17.0026 15.3559 -957.03998
17.5989 15.3355 -957.33099
18.185699 15.3194 -957.19397
18.710699 15.2962 -957.38202
19.2213 15.298 -957.45697
19.736401 15.2863 -957.51801
20.372101 15.1478 -957.625
20.8899 15.2229 -957.87
21.4839 15.233 -958.10199
22.054701 15.0905 -958.02399
22.73 15.1767 -958.65503
23.357401 15.1608 -958.41602
23.9814 15.1494 -958.55298
24.477699 15.0186 -958.70898
25.128599 15.0089 -958.95001
25.849501 14.9887 -959.29303
26.8361 15.132 -959.625
27.5966 14.9563 -959.92603
28.888399 14.9191 -960.51001
29.5037 14.916 -960.771
30.140699 15.0354 -961.28699
30.817499 14.8737 -961.39301
31.344299 15.0327 -961.57397
32.854698 14.8566 -962.513
33.253799 14.9845 -962.88202
34.0383 14.8421 -963.14099
34.782299 14.8396 -963.67102
35.417 14.994 -964.53699
36.980499 14.8583 -965.255
37.6231 14.9696 -965.82397
38.297401 14.9402 -966.40302
39.255402 14.8194 -967.06403
40.087502 14.9016 -967.39899
-26.4214 18.6474 -986.87097
-25.0324 18.3729 -982.336
-24.309299 18.2924 -980.62299
-23.9422 18.2694 -979.78699
-22.822399 18.1462 -977.91803
-21.1752 17.924999 -974.58801
-20.9028 18.0695 -974.117
-20.012501 17.823 -972.93701
-19.226101 17.750999 -971.72803
-18.3398 17.673401 -970.69598
-17.896999 17.6243 -970.10797
-16.9842 17.562799 -969.034
-15.7364 17.459299 -967.716
-15.3534 17.4359 -967.27002
-14.9438 17.403601 -967.13098
-14.4758 17.373199 -966.82703
-13.9884 17.305201 -966.08301
-13.5221 17.281601 -965.83301
-13.0558 17.2423 -965.56897
-12.548 17.2174 -964.83801
-11.2496 17.133801 -964.125
-10.8298 17.1122 -963.729
-10.3913 17.069599 -963.414
-9.9121399 17.055401 -963.349
-9.4155502 17.028 -963.01099
-9.0141602 17.1105 -962.797
-7.91713 16.935301 -961.96802
-7.14856 16.9727 -961.54602
-6.5725799 16.875299 -961.409
-6.1518302 16.822201 -961.19299
-3.65674 16.7092 -959.90002
-2.18539 16.619699 -959.315
-1.74825 16.6105 -959.21997
-0.32001001 16.542601 -958.46503
0.71023202 16.4988 -958.41199
1.77481 16.4484 -958.59601
2.2901199 16.412201 -957.77802
2.9482999 16.387199 -958.33398
3.22047 16.393499 -957.64502
3.67325 16.352699 -957.61603
4.6377501 16.283001 -957.40399
6.3354602 16.3566 -957.21301
9.3676205 16.144899 -957.16699
9.8256397 16.0914 -956.75098
11.001 16.061899 -956.65302
11.5611 16.0375 -956.50598
12.1463 16.0299 -957.45898
13.2098 15.9513 -956.711
13.698 15.9725 -956.83801
14.1654 15.9366 -956.99597
15.2548 15.9076 -956.71698
15.8718 15.9075 -957.00598
16.445499 15.8791 -957.17102
17.0222 15.8503 -956.83197
17.403999 15.8368 -957.02802
18.207001 15.82 -957.24902
18.733801 15.7951 -957.505
19.2495 15.7826 -957.56201
19.9457 15.7396 -957.677
20.2901 15.7473 -957.70203
21.075001 15.7137 -957.90503
21.5578 15.6883 -957.96802
22.150499 15.7374 -958.22699
22.755199 15.7207 -958.56299
23.3941 15.6893 -958.33002
24.0096 15.6712 -958.69
24.606899 15.5857 -958.86603
25.213699 15.5713 -959.03802
25.654699 15.6403 -959.14697
26.2274 15.619 -959.20398
27.528799 15.5957 -959.79102
28.191401 15.5805 -960.28699
28.924299 15.499 -960.55298
29.543501 15.4727 -960.815
30.171801 15.5681 -961.31
