# .PCD v0.7 - Point Cloud Data file format
VERSION 0.7
FIELDS x y z
SIZE 4 4 4
TYPE F F F
COUNT 1 1 1
WIDTH 1763
HEIGHT 1
VIEWPOINT 0 0 0 1 0 0 0
POINTS 1763
DATA ascii
14.8507 11.1987 -1043
12.8642 11.5259 -1043.23
10.851 12.0458 -1043.35
10.2825 12.0337 -1043.49
8.7580004 12.3009 -1043.16
6.3109999 12.6707 -1042.95
3.8577299 13.1416 -1042.96
1.50345 13.3146 -1042.02
0.97494501 13.5173 -1042.47
0.025207501 13.3708 -1042.26
-2.0850201 13.2828 -1041.41
-2.9431801 13.4124 -1041.38
-4.0219102 13.6277 -1041.17
-5.2588801 13.0973 -1040.49
-9.2993498 13.0314 -1038.67
-10.9206 13.0179 -1037.78
49.486099 -5.8899798 -1021.89
48.245399 -4.7498798 -1024.14
46.2337 -2.87585 -1026.74
45.448002 -1.83047 -1027.96
44.514801 -1.03391 -1029.23
43.549099 -0.084411599 -1030.02
41.947899 1.2310801 -1032.62
41.2104 2.1134601 -1033.2
40.504398 2.3935201 -1033.84
39.608398 2.5023201 -1034.1899
39.237202 2.7292199 -1034.66
37.667198 3.3406999 -1034.92
37.202599 3.3859301 -1035.09
36.4692 4.2637601 -1035.64
35.769798 4.4140601 -1036.23
35.019501 5.0086398 -1037.23
33.7985 5.81287 -1037.84
32.774399 5.95294 -1038.26
31.9258 6.6219201 -1038.65
28.2444 7.8053899 -1039.98
27.534401 8.1543598 -1040.15
27.074699 8.2726402 -1040.45
25.508101 8.8375902 -1040.71
24.9517 8.8474703 -1040.8
24.4268 8.8905602 -1041.01
22.849701 9.6322002 -1041.48
22.307899 9.6625996 -1041.65
21.7379 9.9279203 -1041.76
21.238899 10.2501 -1041.8
20.7054 10.3538 -1042.02
19.607401 10.4167 -1042.33
18.6108 11.0551 -1042.5601
17.970501 11.0598 -1042.59
16.7698 11.6104 -1042.71
15.4789 11.4869 -1042.78
14.7194 11.3343 -1042.64
14.4662 11.9224 -1043.04
13.6049 12.16 -1043.08
12.9471 12.1616 -1043.1801
8.63589 12.6893 -1042.76
7.9728999 12.7507 -1042.99
5.53406 13.2755 -1042.41
4.8220201 13.1888 -1042.4
0.77496302 13.8499 -1041.95
0.11322 13.8007 -1041.97
-0.95104998 13.8203 -1041.71
-1.97192 13.8674 -1041.3
-3.07581 13.66 -1041.14
-4.3963299 13.8168 -1040.5699
-6.28333 13.9466 -1040.2
-14.9857 12.6246 -1035.12
45.351398 -1.32996 -1027.48
44.748501 -0.52459699 -1029
43.813301 -0.292633 -1029.61
42.8876 0.80071998 -1030.61
41.541698 1.95801 -1032.88
40.489799 2.47681 -1033.04
39.207001 3.1792901 -1034.34
38.560299 3.51981 -1034.01
37.635799 3.81232 -1034.62
37.3116 4.0381198 -1035.15
35.620701 4.8586702 -1035.8101
35.326302 5.14505 -1036.41
33.689602 6.0613699 -1037.34
31.985399 6.7504301 -1038.21
30.9762 7.2066698 -1038.87
29.4918 7.7888498 -1039.1899
28.4534 7.8937998 -1039.5601
27.025101 8.6816397 -1040.11
26.5091 8.6999502 -1040.21
25.960501 8.6855497 -1040.33
25.332199 9.3709402 -1040.79
24.683701 9.5272198 -1040.91
24.154499 9.82971 -1041.23
23.4042 10.0691 -1041.09
22.3323 10.1653 -1041.48
21.149799 10.6014 -1041.3199
20.636499 10.6923 -1041.5699
20.1644 10.8831 -1041.97
19.161699 11.0855 -1042.45
18.591101 11.508 -1042.22
17.3279 11.5198 -1042.42
15.6205 12.1765 -1042.86
13.6699 12.7365 -1043.04
12.9303 12.6202 -1042.96
12.1717 12.4313 -1042.8101
10.8473 12.9729 -1042.96
9.5933199 13.1147 -1042.72
7.9183302 13.0803 -1042.65
6.5022602 13.6323 -1042.8101
5.5049701 13.7969 -1042.26
2.7929699 13.9548 -1042.03
1.40259 13.7551 -1041.6801
0.67608601 14.0161 -1041.5699
-0.055481002 14.2114 -1041.65
-0.82110602 14.3431 -1041.65
-2.79773 14.3748 -1041.04
-5.2520399 14.3524 -1040.24
-9.6282301 13.8766 -1037.97
-10.777 13.7076 -1037.85
49.6754 -5.2293401 -1020.87
48.524601 -3.9484601 -1023.36
44.675701 -0.38211101 -1028.1899
43.060699 0.80810499 -1029.87
42.416401 1.6189899 -1031.0699
41.443501 1.78036 -1031.55
39.806702 3.2746601 -1033.33
39.396999 3.3674901 -1033.5601
35.734001 5.4598999 -1035.89
35.3657 5.6309199 -1036.28
33.746399 6.5985999 -1037.3
33.3349 6.6556101 -1037.38
32.877399 6.9597201 -1038.09
32.179001 7.2083702 -1037.61
27.2346 9.2052002 -1040.0601
26.5842 9.27176 -1040.21
26.073099 9.3343496 -1040.37
25.445 9.7072802 -1040.1
24.796801 10.0223 -1040.76
23.9459 10.0155 -1040.91
23.4242 10.5864 -1040.89
22.791401 10.5099 -1040.9
22.248899 10.5547 -1040.99
21.7199 10.6576 -1041.28
20.753799 11.4014 -1041.63
20.179701 11.3988 -1041.73
19.7125 11.4987 -1041.97
18.0331 12.1711 -1042.3199
16.7777 12.3572 -1042.5
15.5171 12.5555 -1042.4301
14.9649 12.6745 -1042.74
14.2289 12.6246 -1042.76
12.9535 13.1062 -1042.8
12.1539 13.2921 -1042.3199
11.6022 13.5002 -1042.73
9.6806297 13.5723 -1042.53
7.9921899 13.6723 -1042.65
5.5102501 14.1089 -1042.14
2.2581501 14.4584 -1041.72
1.35883 14.5105 -1041.5601
-3.27811 14.7655 -1040.5601
-4.33325 14.6374 -1040.0601
-6.1879001 14.8029 -1039.71
-6.7571101 14.6831 -1039.36
-10.8834 14.0417 -1037.4301
48.451801 -3.5728099 -1022.9
46.624901 -1.44656 -1025.9399
45.805801 -0.73477203 -1027.29
44.7649 0.196594 -1028.01
43.774899 0.68710297 -1029.08
41.888 2.4224899 -1031.35
40.982399 2.8631001 -1031.85
40.108101 3.6767299 -1032.89
39.309101 3.8260801 -1033.3199
39.050098 4.6695299 -1033.78
37.888901 4.6593299 -1034.03
36.708599 5.8253198 -1035.3
35.7229 5.8558002 -1035.65
35.270302 5.9225502 -1035.8101
34.0158 6.8790002 -1036.97
33.242199 7.1575298 -1037.3199
29.676701 9.0173302 -1039.24
28.4771 9.1306801 -1039.34
28.0956 9.62778 -1039.46
27.112499 9.7537203 -1039.86
26.550301 9.7424898 -1039.92
26.0532 9.80655 -1040.15
25.5446 10.3545 -1040.14
24.455099 10.4471 -1040.47
22.852501 11.1136 -1040.76
22.5993 11.1896 -1041.2
21.961201 11.2678 -1041.12
21.2764 11.3264 -1041.41
20.2623 11.9906 -1041.58
18.493799 12.3351 -1041.54
17.812201 12.4416 -1041.98
17.323999 12.4706 -1041.98
16.6968 12.8705 -1041.8199
16.071301 12.9236 -1041.97
15.4806 12.9596 -1042.17
14.0687 13.3269 -1042.4
13.5288 13.3875 -1042.22
12.9424 13.5032 -1042.54
11.433 13.7003 -1042.23
10.0937 13.7595 -1042.47
9.4073496 14.3257 -1042.45
6.4580998 14.5406 -1042.28
3.74103 14.4465 -1041.4399
1.42932 14.9646 -1041.38
0.45422399 15.0886 -1040.85
-1.02231 15.2335 -1041.14
-3.2265899 15.2065 -1040.38
-5.19455 15.3677 -1039.9301
-8.0720797 14.8945 -1038.55
-9.6394701 14.8835 -1037.67
-10.9405 14.4135 -1037.02
-15.8825 13.9663 -1033.67
47.621799 -1.9505301 -1023.71
45.7467 -0.296783 -1026.9399
45.1334 0.61175501 -1027.55
44.170101 1.1921099 -1028.74
43.465599 1.39395 -1029.27
41.826302 2.70297 -1030.72
41.1161 3.32532 -1031.64
38.755299 5.2192998 -1033.87
38.0769 5.56952 -1034.67
37.1912 5.77911 -1035.15
36.834801 6.3575702 -1035.3101
35.412899 6.6434598 -1035.97
34.007401 7.46207 -1036.9301
32.788601 7.9366498 -1037.3199
32.431499 8.3050499 -1037.4301
31.9354 8.4267597 -1037.71
30.9048 8.4783897 -1037.99
30.508801 9.1720896 -1038.16
26.740101 10.2133 -1039.6801
25.991699 10.2076 -1039.79
23.9739 11.0359 -1040.47
22.9063 11.7468 -1040.75
20.658001 11.7564 -1041.14
19.5401 12.4076 -1041.4399
19.089199 12.7704 -1041.89
18.6103 12.9762 -1041.63
17.396099 13.129 -1041.98
16.360399 13.361 -1042.12
14.2073 13.8963 -1042.02
13.6151 13.984 -1042.25
12.9109 13.8624 -1042.21
11.3839 14.1891 -1041.96
9.3017302 14.6019 -1041.97
8.1440697 14.6434 -1041.91
7.0778198 14.9213 -1041.78
6.25281 14.7685 -1041.61
5.5784602 14.858 -1041.91
4.5324702 14.993 -1041.42
3.0011599 15.0225 -1041.4
2.26419 15.4744 -1041.25
1.42963 15.3394 -1041.03
0.51452601 15.4562 -1040.92
-1.34927 15.4218 -1040.52
-3.082 15.6848 -1040.1899
-9.55933 15.4548 -1037.65
47.922699 -2.1062601 -1023.34
45.098701 0.98367298 -1027.22
44.161701 1.62247 -1028.49
42.4687 2.84131 -1029.98
41.9967 3.2924199 -1030.72
41.034801 3.8951099 -1031.16
39.6791 4.62781 -1032.45
38.0625 5.9205899 -1034.29
35.9324 6.9794002 -1035.45
35.285198 7.2762098 -1035.87
34.7477 7.9133902 -1036.8
33.919601 7.9959102 -1036.66
33.493 8.1345501 -1037.02
30.9091 9.1321096 -1037.8199
29.3022 10.0455 -1038.88
28.537001 10.2573 -1039.13
27.2209 10.8253 -1039.42
25.576 11.0651 -1039.8
24.975 11.4092 -1039.77
24.4986 11.5806 -1040.13
23.7535 11.5918 -1040.15
23.241199 11.8513 -1040.46
21.7579 12.1815 -1040.6899
20.6432 12.2062 -1040.9301
20.361601 12.9047 -1041.28
19.7124 12.8892 -1041.28
19.272499 13.093 -1041.7
18.603399 13.3973 -1041.4399
16.9139 13.6516 -1041.76
16.0811 13.8379 -1041.62
15.5204 13.9219 -1041.84
12.9294 14.4532 -1042.13
11.4755 14.7723 -1041.89
10.8275 14.8336 -1042.08
9.1969604 14.9713 -1041.47
8.1617403 15.03 -1041.55
7.0763898 15.4118 -1041.51
6.11484 15.3127 -1041.38
5.6417198 15.4774 -1041.84
4.0216098 15.8768 -1041.64
-0.559174 15.7766 -1040.17
-2.03427 15.9915 -1040.62
-3.11813 16.132401 -1039.97
-5.6019902 15.7791 -1038.61
-7.4886498 15.9163 -1038.1899
-8.4920702 15.7687 -1037.67
49.2286 -2.6386099 -1021.01
46.2733 0.140533 -1025.5
45.310501 1.5296 -1027.33
43.4646 2.76385 -1028.6801
41.170601 3.9147 -1030.58
40.734901 4.5755 -1031.4301
38.816601 6.0989699 -1033.4301
37.8606 6.1215501 -1033.63
37.452702 6.60989 -1034.28
36.7817 6.9014301 -1035.13
35.9851 7.5072598 -1035.36
35.6586 7.68716 -1035.74
34.840199 8.4273996 -1036.17
33.554001 8.8157701 -1037.02
33.040401 8.7892799 -1037.09
31.689301 9.5901203 -1037.75
30.9419 9.8303804 -1038.1
29.786699 10.44 -1038.83
27.996799 11.0968 -1039.35
27.353201 11.3205 -1039.26
26.910601 11.5567 -1039.65
25.625999 11.4969 -1039.84
25.051001 11.9673 -1039.72
24.396999 11.8956 -1039.6801
22.9102 12.653 -1040.37
22.251301 12.5116 -1040.21
21.753401 12.623 -1040.51
20.265699 13.2599 -1040.8
19.751101 13.4083 -1041.24
19.163601 13.607 -1041.3
18.056299 13.8508 -1041.37
15.8663 14.2468 -1041.51
15.58 14.463 -1041.72
14.9697 14.5337 -1041.9399
13.5235 14.811 -1041.6801
12.0336 14.9543 -1041.6
10.8708 15.3764 -1041.95
8.6731005 15.64 -1041.65
5.5433002 15.8839 -1041.42
3.6663799 16.176901 -1041.04
0.62518299 16.3939 -1040.54
-0.50543201 16.4464 -1040.1
-2.39343 16.7946 -1040.1899
-4.8663301 16.3382 -1038.72
-7.2060499 16.371799 -1037.83
-7.93365 16.2978 -1037.7
-9.4003601 16.112301 -1036.9301
-11.0509 15.7961 -1036.3
46.002102 0.89160198 -1025.8101
45.372299 1.96652 -1026.9301
43.779999 3.04568 -1028.12
42.813801 3.5733299 -1029.26
40.586899 5.0372901 -1031.2
39.060299 6.5961599 -1033.39
38.525501 6.8495202 -1033.74
37.6422 7.1010098 -1034.3199
37.283401 7.8200102 -1034.5601
36.310299 8.0997601 -1035.34
35.4086 8.42871 -1036.05
34.401501 9.1163301 -1036.52
33.426498 9.1554298 -1036.54
31.8228 10.2609 -1037.64
30.9025 10.4031 -1038.1
30.324499 10.3761 -1038.14
29.910101 11.0917 -1038.28
29.110701 10.8714 -1038.25
26.930901 11.972 -1039.4399
26.313101 12.071 -1039.4399
24.445601 12.3849 -1039.59
23.2862 12.8149 -1039.5601
22.825199 13.0162 -1040
21.7391 13.0531 -1040.29
20.153601 13.6888 -1040.5601
19.605 13.6797 -1040.72
19.1553 14.3483 -1040.92
18.623899 14.4036 -1041.11
17.007299 14.4857 -1041.1
16.1479 14.9213 -1041.4
12.7499 15.278 -1041.48
11.7323 15.7801 -1041.63
10.0798 15.7016 -1041.54
8.6579304 16.1469 -1041.4
5.3989 16.5984 -1041.2
4.6708398 16.6434 -1040.73
3.7453001 16.6745 -1040.87
3.0401599 16.5539 -1040.8
2.1353099 16.878599 -1040.49
1.11072 16.667999 -1040.1
-0.51196301 16.901699 -1039.9
-2.39188 17.037901 -1039.46
-3.44595 16.853701 -1039.22
-6.3711901 16.937401 -1037.61
-8.3683796 16.6084 -1037.35
48.375 -0.66879302 -1021.95
45.4305 2.2424901 -1026.36
44.730801 2.4902 -1026.9399
43.835499 3.63818 -1028.08
43.131302 3.8667901 -1028.62
41.428101 5.2045002 -1030.3
40.697102 5.5292702 -1030.98
40.0079 6.0816698 -1031.66
38.328098 7.1184402 -1033.02
37.552299 7.48843 -1033.9301
36.761398 8.2311401 -1034.33
36.458099 8.4653301 -1034.79
33.535999 9.7794199 -1036.51
30.9916 10.9521 -1037.96
30.524799 11.1049 -1038.26
29.888901 11.4587 -1038.27
28.4055 11.7731 -1038.77
27.4648 12.4461 -1039.14
26.9067 12.4068 -1039.2
26.301201 12.4009 -1039.35
25.605101 12.8001 -1039.1899
25.2768 12.8704 -1039.41
24.4713 12.8379 -1039.4301
23.912701 12.8939 -1039.59
23.5128 13.367 -1039.76
22.2008 13.3452 -1039.6899
20.6339 14.0408 -1040.11
20.2281 14.2871 -1040.5699
19.591801 14.1958 -1040.5601
18.5926 14.9384 -1040.99
17.2742 14.7764 -1040.9
16.7043 15.385 -1041.09
16.189899 15.3961 -1041.25
9.9837999 16.621799 -1040.89
6.9528799 16.800699 -1040.9399
4.7265601 17.233101 -1040.73
2.81143 17.247 -1040.0699
1.92834 17.0881 -1040
-0.44610599 17.490101 -1039.9399
-1.31717 17.4067 -1039.45
-5.3446999 17.1227 -1037.77
-7.2330298 17.290899 -1037.35
-9.7019997 17.146299 -1036.3101
46.259499 2.0150499 -1024.74
45.382 2.6138899 -1026.01
43.814899 4.0617099 -1027.79
42.825199 4.5566702 -1028.88
42.5453 4.8213801 -1029.4
41.521099 5.4021602 -1029.75
39.354599 7.0054598 -1032.02
38.539299 7.3211398 -1032.4301
37.862598 7.7086201 -1033.23
37.155899 8.6976604 -1033.99
36.560501 9.1431303 -1034.85
35.702099 9.1955299 -1035.08
35.001598 9.61203 -1035.41
33.767799 10.318 -1036.2
33.131401 10.4322 -1036.62
31.7668 11.0792 -1037
30.590599 11.8475 -1038.03
29.3692 12.1738 -1038.23
28.91 12.1085 -1038.3
28.2097 12.4724 -1038.52
27.297899 12.6608 -1038.64
25.989599 13.0075 -1038.45
25.3165 13.2632 -1039.01
23.955601 13.8975 -1039.28
23.3276 13.8568 -1039.33
22.3696 14.1044 -1039.9399
21.7376 14.5069 -1039.7
21.2882 14.6948 -1040.08
20.665001 14.5468 -1039.91
20.148701 14.7192 -1040.3101
19.533001 14.65 -1040.33
18.8962 15.1448 -1040.1801
18.374001 15.2572 -1040.53
17.7376 15.1229 -1040.4301
16.333799 15.8269 -1040.89
15.8473 15.6816 -1040.5699
13.4209 16.145399 -1040.62
11.9959 16.711901 -1040.7
10.755 16.817801 -1041.0699
9.4056396 17.287201 -1041.09
8.5149498 16.952499 -1040.64
6.9823599 17.236799 -1040.6
6.3765001 17.458599 -1040.89
3.9112899 17.5756 -1040.47
-0.493622 17.909401 -1039.6
-2.9763501 17.6632 -1038.46
-5.2350202 17.8109 -1037.92
-6.6970801 17.666599 -1037.0601
-10.3379 17.5217 -1035.6899
45.397999 3.1540201 -1025.88
43.156601 4.88626 -1028.29
41.852901 6.1655302 -1029.74
40.6996 6.53372 -1030.5699
39.471401 7.3736601 -1031.5
38.773998 7.8989601 -1032.23
38.0578 8.3130503 -1032.8
37.349098 8.8494902 -1033
36.416801 9.4433899 -1034.23
35.819302 9.7943096 -1035.02
34.9603 10.48 -1035.38
34.580502 10.739 -1035.88
33.5597 10.7355 -1036.01
31.9086 11.5374 -1036.83
31.4097 11.7664 -1037.24
29.0028 13.1326 -1038.15
27.934099 13.2329 -1038.47
27.143801 12.9685 -1038.13
26.046499 13.5944 -1038.42
25.630301 13.8224 -1038.89
25.004601 13.7187 -1038.8199
23.2754 14.237 -1038.96
22.746 14.3098 -1039.15
21.230499 15.102 -1039.74
20.693001 15.1917 -1039.95
20.264601 15.3024 -1039.99
18.803801 15.5828 -1039.79
17.7439 15.7748 -1040.42
17.0739 15.7001 -1040.35
16.4025 16.175699 -1040.1899
14.6394 16.3241 -1040.73
14.0758 16.5933 -1040.49
11.2758 17.1884 -1040.63
8.68295 17.6887 -1040.89
7.0330801 17.8878 -1040.52
6.30896 17.789801 -1040.51
5.7093801 18.195999 -1040.71
4.6083999 17.961399 -1040.04
3.74246 17.8664 -1039.96
2.5137601 18.0273 -1039.38
0.214996 18.3887 -1039.27
-0.54193097 18.4032 -1039.36
-3.10376 18.1567 -1038.22
-4.4599299 18.3141 -1037.79
-5.30933 18.2572 -1037.6
-6.7706599 18.2145 -1036.5
-7.9571199 18.008101 -1036.26
-10.8323 17.701599 -1034.98
-12.7166 17.326599 -1033.53
51.5686 -2.7850299 -1015.21
46.8214 2.57672 -1023.53
44.731701 3.9321301 -1026.3199
44.089199 4.82651 -1026.91
43.257301 5.1971998 -1027.6801
41.807201 6.62219 -1029.38
41.014999 6.80264 -1029.87
40.3773 7.2419701 -1030.75
38.913601 8.3589201 -1031.84
36.568699 10.0555 -1034.26
35.926201 10.3906 -1035.03
34.615398 10.923 -1035.4301
33.876598 10.9789 -1035.38
33.178001 11.3794 -1036.27
32.651699 11.7924 -1036.41
31.2803 12.0972 -1036.9
30.695499 12.4601 -1036.64
28.4258 13.5845 -1038.01
27.8267 13.6358 -1038.26
25.493299 14.2025 -1038.62
24.9823 14.2151 -1038.62
23.8053 14.6558 -1038.5
23.213699 14.9071 -1039.16
22.541201 14.9403 -1039.04
20.8109 15.4255 -1039.4
20.001699 15.5594 -1039.62
19.112 15.9493 -1039.77
17.036501 16.250999 -1040.16
16.382401 16.767099 -1040.04
15.1832 16.717699 -1040.22
13.9226 17.263599 -1040.33
11.8461 17.618299 -1040.3
9.1493797 17.760599 -1040.04
7.7986102 18.325199 -1040.24
6.9563899 18.2122 -1040.1
6.2707801 18.261999 -1040.28
4.6051602 18.607201 -1040.12
2.37042 18.361401 -1038.9399
0.119537 18.8909 -1039.03
-2.14505 18.714199 -1037.97
-3.56757 18.571301 -1037.5601
-4.40097 18.754999 -1037.58
-5.4228802 18.702999 -1037.17
-9.37286 18.4051 -1035.41
-9.5546598 18.370501 -1034.96
50.374298 -1.00314 -1017.33
47.934399 2.1397099 -1022.32
45.0816 4.3506799 -1025.88
43.428001 5.7617202 -1027.58
42.544899 6.3751502 -1028.8
41.0802 7.4606299 -1029.87
40.379601 7.7228999 -1030.29
39.568298 8.3756399 -1030.76
38.986801 8.7728901 -1031.75
37.243698 9.7568703 -1033.15
36.5812 10.4693 -1034.1801
35.937401 10.8356 -1034.8101
34.031601 11.6096 -1035.53
33.2122 12.2505 -1035.84
32.215599 12.3383 -1036.16
30.8242 13.1915 -1036.87
30.292801 12.6761 -1037.1
29.672501 13.3776 -1037.37
27.971201 14.2632 -1038.22
27.2957 14.1415 -1038.1
25.5676 14.7488 -1038.36
24.891701 14.553 -1038.14
23.3113 15.3194 -1038.61
22.2528 15.4307 -1039.05
21.0028 16.048 -1039.48
18.1675 16.5877 -1039.49
17.582899 16.6877 -1039.74
16.9746 16.711201 -1039.88
16.3291 17.152399 -1039.76
15.7179 17.1308 -1039.8101
14.6774 17.1747 -1039.75
12.4506 17.552799 -1040.11
11.5591 17.8295 -1040.01
10.4146 18.1761 -1040.1801
10.0854 18.580799 -1040.71
7.76578 18.7673 -1039.96
7.32617 18.7959 -1040.28
6.3808298 18.886 -1040.29
4.8277302 19.253901 -1040.15
3.7000101 18.872601 -1039.66
2.4588301 19.0324 -1038.98
0.790833 19.4261 -1038.75
0.0241089 19.4086 -1038.8199
-0.43399 19.2288 -1038.71
-3.1844201 19.1327 -1037.72
-5.45892 19.253401 -1037.02
-6.79773 18.7969 -1036.34
-10.976 18.6772 -1034.67
-14.9026 18.035601 -1031.87
-17.545099 17.540001 -1030.1899
46.256001 4.03931 -1023.94
45.045399 4.8005099 -1025.5601
44.105301 5.9000902 -1026.53
43.4375 6.2104201 -1027.22
42.815601 6.59201 -1028.0601
41.383598 7.66821 -1029.12
40.542702 8.2581196 -1030.21
39.051899 9.4583702 -1031.71
36.841099 10.6481 -1033.3199
36.003101 11.3039 -1034.38
34.783001 11.6633 -1034.55
34.100601 12.1126 -1035.45
32.266998 12.9489 -1036.16
30.358601 13.5108 -1036.73
27.197201 14.5896 -1037.8199
25.968 14.4999 -1037.83
25.618999 15.0305 -1038.03
24.9259 15.1091 -1038.01
23.8948 15.3267 -1038.52
22.7134 15.7883 -1038.5
22.2062 15.8877 -1038.72
21.6308 16.254499 -1039.05
21.124399 16.495001 -1038.84
20.424801 16.489401 -1039.15
19.421499 16.6443 -1039.35
18.207701 17.1458 -1039.42
17.5418 17.0742 -1039.4399
17.065399 17.3416 -1039.9399
15.1663 17.7145 -1039.92
13.7824 17.912701 -1039.7
13.1996 18.099001 -1039.9399
11.6772 18.3521 -1039.86
10.6255 18.6591 -1040.28
10.0016 19.1374 -1040.1801
6.25284 19.212 -1039.76
4.7681599 19.520201 -1039.74
3.6895101 19.3545 -1039.22
2.50439 19.143299 -1038.51
1.5867 19.4662 -1038.74
-0.24527 19.657499 -1038.14
-4.3600202 19.494101 -1037.24
-5.8386202 19.507799 -1036.48
-6.7974901 19.3696 -1036.3199
-9.5422096 19.5257 -1034.88
-15.0515 18.4881 -1031.71
48.125401 2.42627 -1020.77
45.931 4.7087698 -1024.08
45.322498 5.0771799 -1024.86
44.397099 5.8768001 -1025.96
43.453602 6.7274499 -1027.1
42.117199 7.3759499 -1028.5
41.056599 8.3399696 -1029.4
40.7267 8.5451002 -1029.83
40.041801 8.8703604 -1030.53
36.902 11.212 -1033.3101
36.136101 11.325 -1033.71
34.810299 12.2501 -1034.4
33.732601 12.739 -1035.5601
32.717499 13.3241 -1035.73
32.215099 13.3511 -1035.8199
30.3498 13.8585 -1036.28
29.9526 14.2034 -1036.74
28.2076 14.4197 -1037.36
26.899401 15.0359 -1037.34
26.3925 15.3883 -1037.79
24.953899 15.7108 -1037.91
23.2075 15.6939 -1038.1899
22.264299 16.519199 -1038.7
20.568501 17.011801 -1038.8101
19.309999 17.198799 -1038.99
18.765499 17.024401 -1039.16
18.1668 17.561199 -1039.16
17.000299 17.7057 -1039.6
16.317699 18.022699 -1039.33
15.7401 18.131599 -1039.54
14.9204 18.177099 -1039.46
14.5406 18.1684 -1039.86
13.84 18.6085 -1039.73
13.1462 18.5014 -1039.63
12.3744 18.3354 -1039.49
11.7522 18.8083 -1039.66
11.1393 18.989799 -1039.74
10.5923 19.162701 -1040.14
9.9534597 19.5536 -1039.9
9.2708101 19.458401 -1039.85
7.8125601 19.366501 -1039.88
6.2460599 19.6999 -1039.63
4.7515602 19.811001 -1039.3101
2.3420401 19.9816 -1038.39
1.28961 19.919201 -1038.39
-0.29037499 20.1824 -1037.91
-1.33801 19.964899 -1037.66
-2.3029499 20.006701 -1037.45
-3.3678899 19.881001 -1036.9
-4.4931302 19.8179 -1036.77
-5.5850801 20.090799 -1036.4399
-8.2712402 19.7365 -1035.2
-9.7023897 19.612 -1034.41
49.395901 1.40811 -1018.69
46.214901 4.9974699 -1023.44
44.379002 6.59302 -1025.7
43.674 6.84338 -1026.23
42.804001 7.56357 -1027.62
42.059898 8.1852102 -1027.97
41.563099 8.6556997 -1029.05
40.621101 8.8916302 -1029.26
40.020802 9.7347403 -1030.11
38.835899 10.4653 -1031.64
37.994099 10.55 -1031.96
37.618999 11.2985 -1032.67
36.020199 11.7486 -1033.41
34.870098 12.7902 -1034.37
34.008701 12.9622 -1034.83
33.564098 12.9839 -1034.98
33.0695 13.6194 -1035.1
32.141201 13.7161 -1035.5
31.263 14.0057 -1036.1
30.478701 14.4319 -1036.27
29.744699 14.7931 -1036.5601
24.931999 16.178699 -1037.66
24.3965 16.2714 -1037.89
23.8323 16.273199 -1037.99
23.292299 16.8424 -1038.02
22.780701 16.927601 -1038.3
21.0891 17.3885 -1038.4301
19.957199 17.473301 -1038.76
19.4701 17.743401 -1039
18.8284 18.0781 -1039.0601
18.1593 17.9865 -1038.92
17.598301 18.094 -1039.25
16.915899 18.4807 -1039.04
16.3862 18.629801 -1039.37
15.7075 18.544001 -1039.3
14.909 18.5016 -1039.03
13.1019 18.997999 -1039.4301
12.3963 19.294701 -1039.6
11.6497 19.2841 -1039.09
9.1284504 20.065399 -1039.98
1.29761 20.256399 -1038.01
0.85769701 20.369301 -1038.02
-1.2316 20.5651 -1037.72
-3.16241 20.4951 -1036.99
-4.4493999 20.3284 -1036.67
-6.70786 20.3596 -1035.64
-7.10602 20.391899 -1035.13
-11.5958 19.898701 -1033.27
49.66 2.0543499 -1018.25
46.527599 5.3186302 -1022.99
45.332802 6.0502901 -1024.53
43.7267 7.3477201 -1026.1899
43.076698 7.6940298 -1026.92
42.432499 8.6355896 -1028.03
41.750099 8.8889799 -1028.3101
40.8965 9.6113596 -1029.38
38.9048 11.0049 -1031.49
38.281101 11.1695 -1031.65
37.717098 11.6948 -1032.3199
36.697102 11.8574 -1032.4301
36.503399 12.2339 -1033.12
35.5942 12.4809 -1033.6801
35.195 13.1554 -1033.83
33.495399 13.514 -1034.8101
31.096901 14.502 -1035.6
28.9524 15.4384 -1036.48
28.499599 15.2578 -1036.51
27.791401 15.8278 -1036.92
25.991501 16.1068 -1037.33
24.854601 16.5399 -1037.29
23.269699 17.223 -1037.77
22.789101 17.382 -1038.12
21.682301 17.8708 -1038.21
20.521601 17.8958 -1038.4399
19.3622 18.434999 -1038.51
19.000401 18.3342 -1038.8
18.201799 18.505899 -1038.89
17.4809 18.3902 -1038.76
16.3657 19.0998 -1039.13
15.6141 18.8479 -1038.83
15.0195 18.9013 -1038.98
14.3973 19.3929 -1038.95
13.3934 19.5009 -1039.1801
12.2865 19.2707 -1038.98
10.4829 20.0399 -1039.55
9.8515301 19.976299 -1039.55
9.1302204 20.3209 -1039.16
7.68225 20.6789 -1039.59
6.2111201 20.7313 -1039.15
2.4010301 20.653 -1038.38
0.530182 20.678499 -1037.6899
-0.43148801 20.9781 -1037.3101
-1.35526 20.879499 -1037.25
-2.16412 20.8974 -1036.98
-3.5248101 20.8251 -1036.4399
-4.6427002 21.1031 -1036.05
-5.8024902 20.836901 -1035.75
-8.5976896 20.4526 -1034.29
-9.8374004 20.854401 -1034.05
-11.414 20.283001 -1033.26
-13.0776 20.341999 -1032.45
49.762699 2.2567699 -1017.92
47.2887 5.0328999 -1021.4
46.772301 5.5049701 -1022.32
44.029499 7.6448998 -1025.64
42.436401 9.0661898 -1027.4
41.760799 9.4095802 -1028.15
41.032398 10.1968 -1028.65
39.219398 11.2377 -1030.87
38.455399 11.5116 -1031.51
37.561298 12.2768 -1031.86
37.3018 12.5998 -1032.48
35.077099 13.4725 -1033.35
34.671299 13.6127 -1033.6801
33.708801 13.7297 -1033.96
32.685001 14.7326 -1035.04
30.7542 15.1471 -1035.92
30.059401 15.4513 -1035.55
29.823299 15.8319 -1036.21
28.030701 16.3286 -1036.33
27.0159 16.473301 -1036.78
23.812201 17.642599 -1037.42
21.0872 18.324699 -1038.0601
16.857201 18.917601 -1038.6899
16.3018 19.472401 -1038.78
15.0401 19.437201 -1038.88
14.6321 19.7292 -1038.8199
13.0381 19.8298 -1038.85
12.3746 19.9121 -1039.01
11.6206 20.302601 -1038.6899
9.1745596 20.7488 -1039.01
8.6684303 20.8985 -1039.11
7.8184199 20.9608 -1039.33
6.2919302 21.375799 -1039.11
5.5696998 21.197201 -1038.74
3.1865499 21.1367 -1038.08
2.25418 21.424801 -1037.71
1.4044501 21.3461 -1037.67
0.46020499 21.056101 -1037.35
-0.463074 21.381399 -1037.03
-1.54602 21.4732 -1036.99
-2.6062901 21.368401 -1036.49
-3.5574999 21.296101 -1036.23
-5.8772302 21.2138 -1035.35
-8.9388399 21.150499 -1034.08
-10.127 21.010799 -1033.25
48.695 3.9862101 -1019.22
44.987499 7.6280799 -1024.34
44.003601 8.0782499 -1025.4
39.887402 10.9594 -1029.41
39.336899 11.847 -1030.6899
37.2131 12.8846 -1031.96
36.27 13.0065 -1032.39
35.9533 13.466 -1032.65
35.1534 14.1045 -1033.35
34.6796 14.2585 -1033.64
31.881201 15.0678 -1034.49
31.364901 15.5606 -1034.45
28.3881 16.5536 -1036.01
27.091499 17.048201 -1036.8199
24.3643 18.049299 -1037.04
22.1458 18.6562 -1037.45
21.4566 18.7325 -1037.87
21.1187 18.869499 -1037.96
20.5012 18.8269 -1037.98
19.2945 19.316299 -1037.97
18.6549 19.2805 -1038.03
18.0438 19.3034 -1038.16
16.3482 19.767599 -1038.29
15.081 19.796801 -1038.09
13.5842 20.419001 -1038.63
12.1205 20.805401 -1038.7
11.7294 20.9984 -1038.84
7.5531301 21.7253 -1038.54
6.9499502 21.2906 -1038.85
6.9233999 21.875401 -1038.86
5.98422 21.5404 -1038.47
5.1055002 21.5089 -1038.55
4.8468599 21.7304 -1037.91
4.0770898 21.630899 -1037.88
2.18677 21.802999 -1037.4
1.4162 21.8699 -1037.64
0.38851899 22.0119 -1036.97
-0.56375098 21.780701 -1036.6899
-1.3291 21.933701 -1037.0601
-2.4521201 22.132 -1036.52
-3.98364 21.821699 -1035.73
-4.8073101 21.9785 -1035.4399
-5.9904499 21.812201 -1035.05
-7.4074998 21.771999 -1034.55
-8.6615295 21.606199 -1034.0699
-13.6975 20.837799 -1030.95
-15.5862 20.768101 -1030.05
47.8111 5.1463599 -1019.74
43.340199 9.42136 -1025.7
41.680302 10.2696 -1027.54
40.036201 11.5774 -1029.36
39.534302 12.0829 -1030.0601
37.847 12.572 -1031.15
37.346699 13.4366 -1031.79
34.669201 14.5163 -1033.01
32.976398 15.7278 -1034.39
32.018799 15.6761 -1034.4399
31.1521 16.513901 -1035.12
29.6588 16.5753 -1035.5
28.0832 17.1791 -1035.84
26.208599 17.888 -1036.59
24.427 18.666201 -1037.09
23.1766 18.5693 -1037.08
22.1651 19.2335 -1037.35
21.6283 19.2575 -1037.5601
21.031799 19.155701 -1037.5
20.435101 19.2395 -1037.64
19.310101 19.851 -1037.84
18.6833 19.8305 -1037.92
18.0895 19.882601 -1038.11
17.4443 19.845699 -1038.17
16.2514 20.4231 -1038.23
15.0005 20.4564 -1038.4
13.7078 20.989599 -1038.45
11.6218 21.3843 -1038.35
9.3643198 21.503099 -1038.22
7.1845698 21.8139 -1037.77
5.7262001 21.814501 -1037.97
3.98245 22.1157 -1037.7
3.1108699 21.9715 -1037.61
2.1943099 22.276501 -1037.29
0.117065 22.334 -1036.79
-1.55304 22.6539 -1036.27
-2.56866 22.521799 -1036.13
-3.3468299 22.409901 -1035.83
-6.1264 22.0497 -1034.62
-8.7259798 22.126301 -1033.9
-10.2668 22.1982 -1032.96
-11.7654 21.8249 -1032.49
-13.6069 21.506399 -1030.9301
50.2295 3.61008 -1016.14
49.061199 4.79599 -1018.53
48.002102 5.7182002 -1019.31
46.987301 6.6814299 -1021.23
45.8517 7.9794302 -1022.62
44.3022 8.9058199 -1024.61
42.696701 10.2967 -1026.24
41.9944 10.5773 -1026.89
41.2864 10.8891 -1027.59
40.357601 12.21 -1029.36
39.420799 12.549 -1029.75
37.469398 13.7097 -1030.99
36.8535 14.2476 -1032.09
34.993401 14.9445 -1032.65
34.240601 15.2519 -1033.29
32.885899 16.035101 -1033.97
32.363998 15.9983 -1033.97
30.6007 16.854401 -1034.87
29.1446 17.567499 -1035.3199
28.5378 17.5921 -1035.6899
27.364901 17.6623 -1035.48
26.8965 17.6283 -1035.87
26.245199 17.9914 -1035.62
25.4464 18.5278 -1036.63
25.09 18.6266 -1036.52
24.482 18.806999 -1036.6801
23.771 19.0394 -1036.77
23.2397 19.112801 -1037.03
22.6945 19.139999 -1037.16
21.6124 19.6122 -1037.29
21.0429 19.766199 -1037.4
20.4872 19.8283 -1037.58
19.886999 19.805099 -1037.6899
19.254101 20.2918 -1037.51
18.7197 20.4231 -1037.85
18.011499 20.272301 -1037.67
17.4485 20.3862 -1038
16.1591 20.861099 -1037.86
15.6197 20.997299 -1038.1801
13.7256 21.2736 -1038.01
12.9031 21.306801 -1038.01
12.2832 21.8815 -1038.09
11.599 21.822701 -1038.11
7.23001 22.4643 -1037.89
2.7578399 22.741301 -1037.24
1.3385 22.7526 -1037.1
-0.52035499 23.0005 -1036.62
-3.84009 22.764999 -1035.24
-6.0563002 22.788401 -1034.72
-8.9717999 22.337601 -1033.13
-11.8824 22.2437 -1032.1801
-13.8381 22.0368 -1030.8199
-17.1077 21.3615 -1027.89
47.239899 6.9699402 -1020.56
46.114201 7.7216802 -1022.16
45.217499 8.8450899 -1023.17
43.662701 9.7979097 -1025.15
42.09 11.0624 -1026.65
40.315601 12.2601 -1028.37
39.355801 12.9821 -1029.41
38.9454 13.3463 -1029.89
38.244301 13.6927 -1030.36
37.465801 14.1731 -1030.83
36.798401 14.2741 -1031.04
33.633499 16.0667 -1033.34
32.832199 16.3706 -1033.62
32.391701 16.492599 -1033.88
31.747801 16.9568 -1034.37
31.0875 17.272499 -1034.51
30.5049 17.361 -1034.84
29.856501 17.5842 -1035.02
28.7379 18.2255 -1035.55
28.285299 18.326 -1035.84
27.441 18.3874 -1035.72
27.1455 18.8615 -1035.91
25.1628 19.065599 -1036.3199
23.7073 19.4557 -1036.45
23.3967 19.486799 -1036.62
22.1077 19.636999 -1037.03
21.515301 20.133699 -1036.89
21.032499 20.1203 -1037.02
20.384899 20.1947 -1037.15
19.837999 20.806999 -1037.21
19.2801 20.8561 -1037.4
18.709499 20.930599 -1037.63
18.097 20.9443 -1037.72
17.412901 20.854799 -1037.66
16.812599 21.4622 -1037.6801
16.181801 21.436199 -1037.73
15.4929 21.3367 -1037.66
14.9543 21.459801 -1037.96
14.2759 21.867399 -1037.78
13.4318 21.940901 -1038.05
12.9088 21.7911 -1037.83
10.8586 22.292 -1038.02
4.7952299 23.2565 -1037.47
3.9084201 23.048901 -1037.29
2.09149 23.231899 -1036.74
1.3111 23.246401 -1036.87
0.25820899 23.1817 -1036.27
-1.76666 23.292601 -1035.79
-6.2676702 23.061199 -1034.1
-12.1509 22.6215 -1031.62
-14.3813 22.2749 -1029.97
48.305199 6.6205101 -1018.6
45.4608 9.07166 -1022.43
44.570801 9.6726999 -1023.66
43.878399 10.4597 -1024.88
42.9851 11.1339 -1025.4301
42.345901 11.5086 -1026.22
39.732498 13.3259 -1028.92
38.487 14.3815 -1030.5
37.835098 14.5255 -1030.41
37.147999 14.9969 -1031.34
36.285801 15.0761 -1031.67
35.518002 15.2185 -1031.41
35.092201 15.9222 -1032.4399
34.297001 16.221399 -1033.15
33.725101 16.6001 -1032.9
33.095699 16.9144 -1033.61
29.2686 18.5847 -1035.09
28.753901 18.6371 -1035.28
28.009701 18.666201 -1035.42
27.753 18.8186 -1035.73
25.7353 19.178301 -1035.6899
24.714001 19.2575 -1035.92
24.181999 19.8209 -1035.9
23.714399 19.996201 -1036.27
22.0928 20.143499 -1036.8101
21.7136 20.428101 -1036.71
20.929399 20.6458 -1036.77
20.4203 20.7806 -1037.02
17.9862 21.3267 -1037.26
17.3575 21.3393 -1037.39
16.104601 21.7857 -1037.35
14.9066 21.882401 -1037.6899
13.489 22.157 -1037.4
8.73102 23.146099 -1037.85
7.0855098 23.2771 -1037.22
3.92206 23.5944 -1037.13
2.9623699 23.3503 -1036.85
2.1249101 23.8528 -1036.72
1.17642 23.6229 -1036.46
-0.16500901 23.702499 -1035.98
-0.67410302 23.766001 -1035.91
-3.11935 23.738501 -1035.16
-9.0177298 23.5037 -1032.98
49.620399 5.48318 -1016.32
46.384701 8.6059599 -1021.39
45.6008 9.3473797 -1022.26
44.576 10.2263 -1023.52
43.901699 10.5316 -1024.22
42.326599 11.9705 -1026
41.624401 12.2823 -1026.7
39.999802 13.5872 -1028.35
39.334702 13.8786 -1028.95
38.6012 14.2102 -1029.6899
36.950199 15.1315 -1030.6801
35.936001 16.1374 -1031.67
34.434898 16.5735 -1032.4
33.149899 17.2733 -1033.28
32.304199 17.260599 -1033.27
31.9422 17.545601 -1033.8
30.971399 18.0688 -1033.91
30.587601 18.3307 -1034.39
30.030001 18.617701 -1034.79
28.739901 19.095699 -1035.03
27.7103 19.5795 -1035.87
24.7428 19.8339 -1035.84
23.7502 20.5835 -1036.17
22.6042 20.613899 -1036.4399
22.056801 20.654499 -1036.55
20.659401 21.1576 -1036.74
19.274099 21.390699 -1037.22
18.5807 21.771999 -1036.9399
18.069401 21.907101 -1037.29
17.4044 21.9282 -1037.39
16.678301 22.206499 -1036.98
16.1528 22.3554 -1037.3101
14.8581 22.2787 -1037.38
14.2245 22.7355 -1037.3199
12.1618 23.130199 -1037.34
4.7395301 24.229601 -1037.03
3.79794 23.953899 -1036.71
2.8737199 23.7418 -1036.49
2.00598 24.0854 -1036.36
1.1642801 24.1453 -1036.26
-0.81036401 24.241699 -1035.52
-1.62955 24.124701 -1035.3199
-2.81143 24.4716 -1035.05
-3.95416 24.2008 -1034.65
-5.0946398 23.9403 -1034.35
-6.6034498 23.990499 -1033.49
-9.4657001 23.805099 -1032.26
-10.4943 23.6789 -1031.66
47.664902 7.9692998 -1018.89
46.607399 8.8499498 -1020.64
45.783401 10.0059 -1021.79
44.215302 10.8708 -1023.69
43.301201 11.424 -1024.87
42.639801 12.2404 -1025.42
41.622299 12.71 -1026.5
40.829498 13.375 -1026.8199
39.9524 14.0143 -1028.16
39.4286 14.4772 -1029.05
38.522301 14.534 -1029.3101
37.413101 15.5432 -1030.34
35.793701 16.391399 -1031.13
33.571701 17.4044 -1032.1899
33.201302 17.585699 -1032.51
32.9151 17.8291 -1033.12
30.65 18.5975 -1033.8199
29.767099 18.9988 -1034.66
29.3876 19.190201 -1034.65
28.3475 19.827101 -1035.29
27.780399 19.8286 -1035.3101
25.957701 20.1392 -1035.33
24.789101 20.4167 -1035.54
24.336901 20.771 -1035.99
23.5154 20.782301 -1035.41
23.097401 21.056999 -1035.9301
22.506599 20.997801 -1035.99
21.5539 21.2938 -1036.62
20.3461 21.6998 -1036.51
19.1325 22.144199 -1036.52
17.8598 22.0912 -1036.62
16.791401 22.3678 -1036.76
15.3943 22.632299 -1036.98
13.5344 23.162001 -1037.1899
7.1974201 24.066999 -1036.86
6.1396499 24.157801 -1036.6801
4.5191998 24.4377 -1036.33
3.8002601 24.478701 -1036.49
3.0301499 24.452499 -1036.26
0.97741699 24.4482 -1035.6801
-0.841919 24.791599 -1035.3199
-3.90891 24.678301 -1034.47
-5.39252 24.6492 -1033.52
-9.2902803 24.244101 -1032.26
-11.0907 23.971701 -1030.9399
47.625999 8.4064903 -1018.61
46.840302 9.0619202 -1019.93
46.015099 9.69312 -1021.23
45.091301 10.6578 -1022.15
44.174801 11.258 -1023.38
43.262699 12.3204 -1024.5
42.584 12.5836 -1025.1
41.738602 13.001 -1025.75
41.111198 13.8176 -1026.98
39.645802 14.6035 -1028.33
38.502399 15.4815 -1028.92
37.3601 15.9559 -1029.98
36.870998 16.032 -1030.26
35.8372 16.73 -1030.9301
35.407299 17.0222 -1031.24
34.655998 17.431499 -1031.83
33.1012 18.0406 -1032.41
32.372299 18.790199 -1033.46
30.684 19.371599 -1034.02
30.004999 19.3216 -1033.96
28.3269 20.352699 -1035.03
27.655701 20.1789 -1034.85
25.735399 20.740999 -1034.9301
23.6063 21.4091 -1035.49
23.1717 21.6374 -1035.98
22.540899 21.5634 -1035.91
22.104601 21.773399 -1036.39
21.3724 21.8543 -1035.98
20.899799 22.1192 -1036.1801
20.3319 22.148001 -1036.3199
19.8069 22.313999 -1036.66
19.194401 22.700899 -1036.55
17.590799 22.960899 -1036.9
16.660601 23.155899 -1036.71
15.3854 23.0805 -1036.79
14.7656 23.091999 -1036.87
12.7076 24.009701 -1037.1899
11.9377 23.780899 -1036.66
10.6366 23.9359 -1036.8199
9.8757601 24.3885 -1036.63
9.2323303 24.4617 -1036.8199
8.7850599 24.378201 -1036.8101
7.7842999 24.3284 -1036.76
5.7801199 24.769199 -1036.61
3.5650301 24.807199 -1036.0601
2.1546299 24.9505 -1035.88
1.0434901 25.110701 -1035.65
0.118561 25.098301 -1035.46
-1.0018899 25.098 -1034.9
-1.95374 25.0382 -1034.74
-2.93433 24.8946 -1034.7
-4.1372399 25.013901 -1034.05
-5.4557199 25.114599 -1033.34
-6.6048298 24.859301 -1033.04
-7.9422002 25.0644 -1032.55
-9.6485901 24.405399 -1031.52
-11.0052 24.730101 -1031.24
-12.8305 23.9618 -1029.97
46.000099 10.5796 -1020.85
44.189602 11.7661 -1023.32
43.456001 12.4043 -1023.6
42.5313 12.9844 -1024.83
41.8311 13.2659 -1025.4301
41.196899 14.2234 -1026.2
40.4352 14.45 -1026.75
39.742199 14.7394 -1027.4301
38.803101 15.8725 -1028.52
38.062801 16.028799 -1029.03
37.4814 16.3179 -1029.4399
36.792599 17.003401 -1029.84
33.897099 18.2582 -1031.52
31.645399 19.282 -1033.08
30.1763 19.885799 -1033.96
28.2747 20.8419 -1034.76
27.757401 20.6127 -1034.62
26.6728 20.789301 -1034.54
25.637501 21.062201 -1034.53
24.629601 21.2505 -1035.03
23.565701 21.812599 -1035.22
23.063 21.918699 -1035.5
22.486401 21.957399 -1035.62
20.8235 22.445999 -1035.85
18.555201 23.1894 -1036.46
17.9781 23.2271 -1036.62
16.970501 23.2932 -1036.29
16.5895 23.5667 -1036.33
15.1861 23.492901 -1036.23
14.8813 23.958 -1036.8199
12.7606 24.027 -1036.7
11.3756 24.539101 -1036.64
9.4310598 24.681101 -1036.51
8.4925804 25.0002 -1036.74
7.6977801 24.7195 -1036.09
3.6289699 25.3869 -1035.84
2.7021201 25.2069 -1035.64
0.72531098 25.538099 -1035.36
0.205994 25.5441 -1035.22
-0.071929902 25.755899 -1034.9301
-0.878052 25.535999 -1034.85
-2.0519099 25.380301 -1034.48
-2.84253 25.4564 -1034.13
-6.8757601 25.289801 -1032.51
-8.2904701 25.189199 -1031.88
49.161301 7.4632001 -1015.63
48.3391 8.6021996 -1016.8
47.0979 9.7832298 -1019.23
46.213299 10.7925 -1020.12
44.4259 11.899 -1022.52
42.860901 13.3099 -1024.28
41.3689 14.6981 -1026.22
40.438999 14.9744 -1026.59
39.721199 15.2408 -1027.22
37.550201 16.5674 -1028.72
36.240501 17.255501 -1029.64
34.965801 18.200199 -1031.15
32.930099 19.026501 -1031.86
32.259899 19.1588 -1031.95
30.6033 20.2757 -1033.39
28.0923 21.0814 -1034.1801
26.8472 21.401199 -1034.4301
25.665701 21.577299 -1034.4399
22.815201 22.5625 -1035.46
21.913 22.8878 -1035.4
21.3263 22.842899 -1035.4399
20.762899 22.8377 -1035.54
20.3615 23.131399 -1036.1
19.688999 23.5478 -1035.91
17.9655 23.774401 -1036.45
17.250299 24.1208 -1036.17
15.2309 23.9119 -1036.11
14.0802 24.5728 -1036.34
12.7972 24.627199 -1036.66
11.3379 25.0343 -1036.4399
10.7055 25.143101 -1036.71
10.1094 25.259199 -1036.5699
7.4863601 25.491501 -1036.21
7.05865 25.6719 -1036.37
6.0497999 25.619101 -1035.91
3.6414499 25.9503 -1035.78
2.64908 25.6724 -1035.4
1.72122 26.003599 -1035.17
0.90463299 26.0425 -1035.24
-2.2082801 26.032 -1034.1899
-3.18677 26.0488 -1033.91
-4.2564702 25.955299 -1033.66
-8.2096596 25.650299 -1031.63
-11.5999 25.349199 -1029.9301
49.716202 7.6153302 -1014.75
44.562801 12.426 -1021.83
42.2467 14.2448 -1025.01
40.737202 15.2366 -1025.9301
37.8895 17.0403 -1028.59
35.007198 18.4422 -1030.29
33.861401 19.4484 -1031.3101
32.866501 19.465401 -1031.47
32.407001 19.621099 -1031.67
31.934799 20.2693 -1032.58
31.0408 20.7152 -1033.01
30.406601 20.785801 -1033.28
29.2388 21.129101 -1034.05
28.532301 21.4053 -1033.6801
28.087601 21.602301 -1034.11
26.685801 21.9114 -1033.89
25.6614 22.059601 -1034.3101
25.222401 22.6737 -1034.5
24.640699 22.650499 -1034.52
24.1346 22.768101 -1034.8199
23.4482 22.597401 -1034.62
23.0023 22.8027 -1035.0699
21.7181 23.3477 -1035.38
20.807199 23.412201 -1035.49
20.1684 23.382 -1035.47
19.5508 23.8484 -1035.38
19.0851 24.0562 -1035.8
18.4272 24.020901 -1035.8
17.8006 24.3013 -1035.99
17.202299 24.5889 -1035.91
16.5352 24.5128 -1035.83
15.9149 24.4769 -1035.9301
15.3087 24.560499 -1036.14
11.3312 25.5828 -1036.24
10.7332 25.769501 -1036.4
7.5494099 25.6513 -1035.77
6.89008 26.2397 -1035.9
5.2820702 26.0912 -1035.8101
4.4053998 26.280899 -1035.55
3.3390801 26.2649 -1035.22
2.6735201 26.2038 -1035.36
1.72812 26.563299 -1035.09
0.81649798 26.400499 -1034.6899
-0.26931801 26.3685 -1034.26
-1.23892 26.337099 -1034.03
-2.20667 26.2096 -1033.86
-3.1574099 26.7013 -1033.76
-4.3336802 26.371799 -1033.3
-7.1432199 26.2656 -1031.86
-10.2171 26.089899 -1030.11
-11.8041 25.5711 -1029.38
-13.8967 25.497 -1028.23
42.464901 14.4048 -1024.15
40.736099 15.7693 -1025.79
40.021999 16.064501 -1026.45
39.337399 16.398899 -1027.17
38.602501 17.256701 -1027.6801
37.8521 17.571501 -1028.37
37.228802 17.885799 -1028.63
36.641701 18.4604 -1029.02
35.924301 18.781401 -1029.77
35.183399 18.849001 -1029.88
34.696098 19.126499 -1030.59
33.7393 19.6411 -1030.63
33.2262 19.8419 -1031.03
31.9251 20.6187 -1031.7
31.007601 21.080299 -1032.7
28.622101 22.069901 -1033.85
28.0266 22.030701 -1033.9301
26.9524 22.116501 -1033.5
26.3629 22.3486 -1033.74
23.495199 23.174 -1034.5699
23.048401 23.599899 -1035.02
22.4079 23.7952 -1034.8101
21.7351 23.6863 -1034.88
21.2082 23.991301 -1035.21
20.099001 24.275 -1034.9399
19.443001 24.2605 -1035.26
19.0368 24.5044 -1035.5
17.886801 24.6383 -1035.95
15.8618 24.9659 -1035.67
13.3826 25.5979 -1036.03
12.7051 25.6 -1036.09
10.5077 25.9839 -1035.96
9.8168898 26.438601 -1035.87
9.0322599 26.127899 -1035.55
8.2579002 26.1987 -1035.5699
7.6875601 26.5263 -1035.76
6.4938698 26.4375 -1035.3101
4.9229102 26.6483 -1035.1899
3.9698801 26.8097 -1035.15
3.4795499 26.726101 -1035.11
1.46506 26.9188 -1034.5699
0.76037598 26.7868 -1034.59
0.68722498 27.260401 -1034.36
-0.29818699 27.0762 -1034.15
-2.04565 27.000601 -1033.66
-2.3013301 27.2271 -1033.5
-4.5431199 26.677401 -1032.78
-5.8597999 26.8493 -1032.14
-7.0149202 26.792299 -1031.7
-7.3046298 26.9039 -1031.25
-8.5028696 26.820601 -1031.1801
-12.0147 26.1455 -1029.2
46.6311 11.7344 -1018.48
45.587898 12.6368 -1020.32
44.036999 14.0504 -1022.07
43.344101 14.7228 -1023.33
41.376301 15.8609 -1024.6899
40.876301 16.227501 -1025.48
40.1208 16.711901 -1026.14
38.512699 17.65 -1027.28
38.127602 17.771999 -1027.55
36.117199 18.8783 -1028.89
35.3167 19.159599 -1029.48
34.072601 20.051701 -1030.29
31.8654 21.009899 -1031.4301
30.9268 21.3582 -1032.21
30.620501 21.713301 -1032.71
30.004 21.620501 -1032.92
29.5599 22.2834 -1033.1
28.946301 22.176001 -1032.99
28.4083 22.2677 -1033.3
26.682699 22.9662 -1033.67
25.1758 23.112301 -1034.2
25.1017 23.5196 -1033.9
24.0359 23.661301 -1034.3
23.536699 23.7425 -1034.53
23.1154 23.9953 -1034.6899
21.279301 24.362499 -1034.85
20.6901 24.5261 -1034.98
19.584999 24.9552 -1035.1
18.9718 24.9732 -1035.21
16.179001 25.4135 -1035.3
15.9131 25.5676 -1035.64
14.6272 26.1499 -1035.58
13.542 26.087299 -1035.6899
11.293 26.5896 -1035.89
8.9902296 26.7633 -1035.49
7.7997699 27.0487 -1035.63
6.6929898 26.991301 -1035.22
4.19449 27.118099 -1034.79
3.4707301 27.234699 -1035
1.4852901 27.2826 -1034.26
-0.58599901 27.3407 -1033.67
-1.54849 27.3881 -1033.4399
-4.5328999 27.2397 -1032.77
-5.89151 27.454599 -1032.09
-10.6339 26.9373 -1029.26
43.304501 14.786 -1022.38
42.4179 15.3939 -1023.67
41.6119 16.0788 -1023.89
41.0303 16.610901 -1024.91
40.320099 16.934 -1025.65
39.288502 17.4167 -1026.72
38.474201 18.0819 -1027.02
37.314999 18.506901 -1027.97
35.259499 19.516701 -1029.14
34.786999 20.0973 -1029.8101
33.973999 20.3971 -1029.92
33.221401 20.751101 -1030.6
30.584 21.875099 -1031.99
29.5019 22.738199 -1032.8199
28.743299 22.459 -1032.47
28.201 22.6178 -1032.87
25.6047 23.4126 -1033.66
23.3908 24.0585 -1034.01
22.375401 24.243799 -1034.55
21.7486 24.7092 -1034.3199
21.1745 24.7043 -1034.38
20.638201 24.7766 -1034.58
20.114901 24.8582 -1034.84
18.951799 25.477501 -1034.9399
17.920799 25.422701 -1034.78
17.769899 25.5697 -1035.3101
16.4741 26.092199 -1035.28
15.8502 26.0693 -1035.34
14.5542 26.507601 -1035.21
13.2207 26.4529 -1035.36
12.5566 26.437 -1035.4301
9.78827 26.9867 -1035.22
8.2569304 27.191299 -1035.37
6.6034899 27.3393 -1034.79
5.9091501 27.4118 -1035.03
5.0831299 27.877199 -1034.85
4.2102098 27.691999 -1034.67
3.34534 27.6133 -1034.5699
2.2851601 27.8442 -1034.11
-0.41253701 28.000299 -1033.65
-1.5914 27.6243 -1032.96
-12.6612 26.9751 -1028.08
49.4464 9.4401197 -1012.65
47.1008 12.2972 -1017.13
45.237202 13.8268 -1020.3
44.326 14.9496 -1021.34
43.2542 15.275 -1022.1
42.687801 15.8311 -1023.04
41.383099 16.923599 -1024.4301
40.282799 17.368999 -1025.41
39.580299 17.6551 -1026.05
38.817299 18.392 -1026.47
38.044998 18.379101 -1026.61
37.755299 18.924101 -1027.67
36.8605 19.0742 -1028.05
36.054699 19.5485 -1028.15
34.514801 20.8043 -1029.6
33.685699 21.0214 -1030.16
32.746899 21.187099 -1030.6899
31.3062 22.250401 -1031.67
29.407301 23.0991 -1032.49
28.6119 22.877899 -1032.2
27.1029 23.7449 -1032.88
26.7097 23.733801 -1033.12
25.027599 23.9781 -1033.6
23.8794 24.4389 -1033.52
20.7237 25.424601 -1034.64
19.5345 25.4496 -1034.84
18.844801 25.8578 -1034.54
18.259001 25.9576 -1034.76
17.580999 26.1744 -1034.9399
17.077999 26.0443 -1035.13
15.8116 26.532301 -1035.13
14.5054 26.916901 -1034.98
13.1849 26.889999 -1035.14
12.4648 26.8459 -1035.12
11.7305 27.2073 -1034.9301
8.9420204 27.680599 -1035.11
8.1558199 27.577499 -1035.0601
7.4096699 28.022499 -1034.83
4.1676602 28.2292 -1034.5699
3.2028501 27.9053 -1034.13
2.32022 28.4666 -1034.0699
1.1507 28.1952 -1033.7
0.63928199 28.214199 -1033.6
-0.53131098 28.4541 -1033.26
-2.3621199 28.226299 -1032.67
-6.2551899 28.158199 -1031.12
-7.2395902 28.091101 -1030.8
-12.6025 27.383801 -1028.1801
-12.9014 27.577999 -1027.4301
-14.9813 27.024599 -1026.3101
48.2761 11.0007 -1014.45
47.327999 12.5938 -1016.5
46.293098 13.615 -1018.7
44.567799 14.6602 -1020.75
43.647202 15.7509 -1021.85
41.3834 17.440599 -1024.29
38.890999 18.4503 -1025.86
38.3731 18.868 -1026.47
37.649101 19.232401 -1027.24
36.893101 19.554701 -1027.95
36.254501 20.026899 -1028.04
35.602402 20.453501 -1028.58
34.834499 20.552601 -1029.1
34.571201 21.4156 -1029.63
32.944302 21.7069 -1030.1
26.668301 24.4552 -1033.0601
23.832899 24.8456 -1033.35
23.2481 25.0541 -1033.58
22.259199 25.1625 -1033.91
21.1696 25.8174 -1034.0601
20.572599 25.7481 -1034.1
20.156601 26.0494 -1034.62
18.2614 26.4147 -1034.6
17.6166 26.4114 -1034.64
16.990299 26.4172 -1034.75
15.6926 26.820999 -1034.67
15.0749 26.8627 -1034.8
14.9868 27.188801 -1034.46
14.1853 27.0198 -1034.5601
13.6993 27.1786 -1034.64
13.4166 27.591999 -1035.12
12.6083 27.5215 -1035.34
12.4995 27.840099 -1034.9301
10.358 27.7034 -1034.95
9.6178598 28.2395 -1034.92
8.1075697 28.0422 -1034.74
6.4072299 28.1103 -1034.08
3.30475 28.556801 -1034.05
1.20874 28.5924 -1033.4301
0.30789199 28.446899 -1033.1801
-0.64468402 28.8874 -1032.86
-1.80417 28.611099 -1032.5699
-2.7780499 28.342699 -1032.2
-5.3225999 28.557199 -1031.3
-7.6257601 28.4911 -1030.42
-11.1951 28.069 -1028.17
-16.062799 27.123199 -1024.75
46.214199 13.8342 -1017.94
45.436501 14.5141 -1019.31
43.59 16.141899 -1021.58
41.959099 17.415199 -1023.16
41.261501 17.705 -1023.87
40.623001 18.245899 -1024.76
39.861301 18.3694 -1025.29
39.159901 19.137199 -1025.8
38.291698 19.2568 -1026.0601
37.583599 19.6166 -1026.9
37.1675 20.2502 -1027.05
36.381802 20.530399 -1027.8101
35.685501 20.8081 -1028.11
34.3759 21.58 -1028.9301
33.861801 21.680401 -1029.13
32.961601 21.955601 -1029.54
31.569599 23.0345 -1030.89
30.9914 23.2929 -1031.4399
29.8573 23.521299 -1032
29.1346 23.9142 -1031.74
27.022301 24.7055 -1032.41
24.978201 24.962601 -1033.12
23.4286 25.604601 -1033.5
22.228701 25.6311 -1033.66
20.955 26.094601 -1033.77
20.551399 26.248699 -1033.9
19.9702 26.247299 -1034.01
18.7673 26.7712 -1034.08
18.2176 26.841801 -1034.36
17.7796 27.040199 -1034.51
16.332199 27.341801 -1034.49
15.516 27.542 -1034.64
14.9975 27.680799 -1034.29
13.8908 27.7288 -1034.64
10.2908 28.1441 -1034.67
9.5346699 28.5889 -1034.54
7.9360399 28.3291 -1034.26
5.7758799 28.8591 -1034.38
4.8975201 28.6896 -1034.17
2.14166 29.2826 -1033.3101
1.27112 29.2013 -1033.25
0.29418901 28.993299 -1033.03
-1.72131 29.153099 -1032.3101
-2.64838 29.051901 -1032.28
-5.2281499 29.034201 -1031.12
-11.0746 28.423 -1028.15
41.5396 17.921499 -1023.18
40.595001 18.5786 -1024.54
39.067402 19.508801 -1025.4
38.284199 19.7407 -1025.95
37.9384 19.9258 -1026.37
37.252201 20.6476 -1027.14
36.302399 20.876301 -1027.3101
35.746899 21.092501 -1027.61
35.199402 21.665199 -1028.49
33.800701 22.139099 -1028.86
32.695 23.2994 -1029.95
31.5259 23.457001 -1030.55
31.2733 23.739401 -1031.1
28.9491 24.577 -1032.01
25.436001 25.333099 -1032.6
23.3332 26.059099 -1033.2
21.657499 26.6668 -1033.48
21.171101 26.8365 -1033.83
20.565001 26.7705 -1033.86
20.043301 26.964899 -1033.96
19.311199 27.117001 -1033.6899
18.7971 27.244699 -1034
18.3312 27.233101 -1033.98
17.6089 27.312799 -1034.3199
16.9555 27.314899 -1034.37
16.8834 27.6973 -1034.09
16.073799 27.739599 -1034.23
15.6749 27.774401 -1034.38
14.3812 28.2311 -1034.26
8.6890602 28.9048 -1034.12
8.27283 29.2589 -1034.54
3.96118 29.4814 -1033.7
2.9133301 29.4217 -1033.36
1.45715 29.9296 -1033.3101
0.406158 29.747499 -1033.04
-1.45157 29.7698 -1032.29
-3.5932 29.8307 -1031.63
-7.6764202 29.197901 -1029.75
46.951698 14.093 -1016.22
45.630402 15.1552 -1018.39
44.143799 16.577 -1020.28
43.4613 16.854099 -1020.92
42.1609 18.0471 -1022.19
41.500301 18.4098 -1022.97
40.8494 18.7876 -1023.77
40.0821 19.518499 -1024.2
39.441502 19.9342 -1025.04
38.5909 20.113199 -1025.46
37.957901 20.4748 -1026.28
37.105999 21.1675 -1026.5601
36.6544 21.204901 -1026.73
35.094299 21.7777 -1028
34.744801 22.5466 -1028.26
33.931702 22.6943 -1028.91
32.9091 22.8451 -1029.16
31.803101 23.851299 -1030.04
29.4013 24.6441 -1030.76
28.858 24.6572 -1031.13
26.5639 25.709101 -1032.3101
25.783199 25.542999 -1031.85
25.3967 25.785999 -1032.38
24.872299 25.839001 -1032.55
23.784201 26.388399 -1032.71
22.251499 26.727501 -1033.5
21.601601 27.0583 -1033.21
21.07 27.146601 -1033.45
20.5397 27.194 -1033.62
19.276699 27.5739 -1033.48
18.1514 27.7432 -1033.9301
17.525101 27.695999 -1033.99
16.771799 28.1329 -1033.99
16.3461 28.3675 -1034.27
15.5714 28.126699 -1033.91
14.9387 28.0987 -1034.02
14.3233 28.690201 -1034.0601
