# .PCD v0.7 - Point Cloud Data file format
VERSION 0.7
FIELDS x y z
SIZE 4 4 4
TYPE F F F
COUNT 1 1 1
WIDTH 1678
HEIGHT 1
VIEWPOINT 0 0 0 1 0 0 0
POINTS 1678
DATA ascii
-33.252602 5.75174 -996.62
-32.999298 5.6361399 -996.078
-32.930099 5.8575401 -995.35498
-32.701199 5.6260099 -994.849
-32.834202 5.4818401 -994.297
-32.661499 5.2604399 -993.763
-32.815899 5.4755201 -992.461
-32.144299 4.74756 -990.77301
-31.171301 4.4400001 -987.06897
-30.4079 4.0492902 -984.52899
-29.127701 3.6701 -983.26599
-26.9387 2.66135 -978.12903
-25.950001 2.2423699 -976.67798
-25.048 1.9400001 -975.422
-24.551001 1.77393 -974.60101
-23.9872 1.5223401 -973.59497
-22.338499 1.01651 -971.758
-15.738 -1.2958699 -965.43799
-25.201799 7.2074599 -1026.24
-25.367399 7.1712599 -1025.1801
-27.491899 7.20544 -1022.08
-27.7911 7.3428302 -1020.95
-28.9769 7.5658598 -1019.81
-28.935699 7.4067402 -1018.97
-29.6322 7.5408602 -1017.96
-29.973 7.4935298 -1016.92
-30.5975 7.52811 -1015.87
-30.8246 7.4847999 -1014.99
-31.399599 7.53262 -1014.1
-31.6033 7.4545898 -1013.35
-31.570101 7.4331398 -1012.58
-32.080399 7.4639602 -1011.74
-32.2808 7.4437599 -1010.96
-32.8918 7.4324598 -1008.76
-32.841599 7.4009099 -1008.15
-32.737598 7.23627 -1007.39
-33.194199 7.0693698 -1004.64
-33.1353 6.9385099 -1003.35
-33.245399 6.8727999 -1002.16
-33.215099 6.66434 -1001.63
-33.1134 6.4721398 -1001.09
-32.890499 6.4247699 -998.55103
-32.864899 6.0053401 -994.07397
-32.355 6.0148001 -992.82599
-32.650299 5.7404799 -992.03302
-32.676701 5.71661 -991.66498
-32.107498 5.52841 -991.07703
-31.6982 5.3727698 -989.75201
-31.0798 5.1246901 -987.78198
-29.433201 4.3190598 -983.052
-29.3137 4.15695 -982.60101
-28.239 3.7801199 -981.76202
-28.4799 3.9506199 -980.914
-27.179701 3.3638301 -979.45099
-26.025299 2.91995 -977.11603
-25.9156 2.8171101 -975.84497
-25.1966 2.3288 -975.14001
-24.173599 2.36801 -974.28497
-23.581699 1.97391 -973.27698
-22.4111 1.60037 -971.63202
-21.6486 1.1162699 -970.75299
-20.285801 0.88018799 -969.82898
-23.6702 7.7610502 -1027.89
-24.445999 7.6532898 -1026.39
-25.990999 7.8056898 -1024.08
-28.1597 8.0481901 -1020.81
-28.3321 7.90698 -1019.99
-29.324301 8.3042603 -1018.51
-29.6346 8.0457497 -1017.74
-30.349899 8.0685101 -1016.63
-30.9797 8.0555401 -1014.87
-31.1639 8.0247202 -1013.73
-31.771999 7.9351802 -1011.77
-32.2663 8.0101299 -1010.92
-32.402401 7.8227801 -1008.78
-32.748402 7.8618498 -1007.98
-32.592499 7.7256198 -1007.35
-32.923199 7.7507 -1006.61
-32.684101 7.8689599 -1005.88
-33.042702 7.6385498 -1005.26
-33.292702 7.3961201 -1003.75
-32.7178 7.5676599 -1003.17
-32.471001 6.9203501 -999.177
-32.800301 6.6584201 -998.04999
-33.092899 6.9108901 -996.78699
-32.2299 6.5697598 -996.18799
-32.859501 6.6897602 -995.50098
-32.4272 6.5280499 -994.961
-32.319599 6.4446998 -994.40802
-32.534 6.4598098 -993.80499
-31.6429 6.1198702 -993.367
-31.9016 5.9693599 -991.51099
-31.9133 5.96591 -990.005
-31.278999 5.7347398 -989.51398
-31.0474 5.5732398 -988.48999
-31.1017 5.66751 -987.62
-28.572599 4.3754001 -982.33301
-28.173201 4.30685 -981.67999
-27.010401 3.8364899 -979.40302
-26.151699 3.4533401 -976.57397
-25.6957 3.3022799 -975.68298
-24.967699 2.8540001 -974.98798
-23.326401 2.4258699 -973.25098
-22.833799 2.2484701 -972.42499
-22.168301 2.0181301 -971.651
-21.0867 1.44128 -970.66101
-18.9706 1.22791 -968.48499
-16.387899 0.29742399 -966.19397
-19.925699 7.7925701 -1032.58
-23.485399 8.1870699 -1027.73
-24.363001 8.2165499 -1026.42
-25.271601 8.2580605 -1025.2
-25.949499 8.4106798 -1024.0699
-26.792801 8.4741497 -1022.95
-26.876801 8.3675804 -1022.01
-27.7057 8.4874296 -1020.78
-28.866301 8.4986296 -1018.66
-29.9217 8.6521597 -1017.5
-30.2202 8.5856304 -1016.58
-30.869301 8.4977398 -1015.62
-30.5753 8.5274401 -1014.91
-30.8685 8.5803499 -1014.09
-31.349199 8.5706797 -1013.27
-30.900101 8.3661203 -1012.64
-31.6448 8.4914904 -1011.73
-31.4354 8.4233704 -1011.07
-31.9772 8.43011 -1010.19
-32.2341 8.4046001 -1009.43
-32.563202 8.2811298 -1007.29
-32.802601 8.2890596 -1006.56
-32.4482 8.1179504 -1005.95
-32.739399 8.12537 -1005.25
-33.0411 8.1261597 -1004.53
-32.863201 8.0352802 -1003.88
-33.065601 7.9311199 -1001.96
-32.525002 7.6235399 -1000.31
-32.821701 7.60852 -999.66199
-32.669498 7.4763799 -998.46802
-32.5914 7.0987902 -997.95001
-32.424999 7.3049002 -997.30298
-32.521099 7.2780499 -996.69
-32.351501 7.0446501 -996.17603
-32.122101 7.05582 -995.56
-32.2883 7.1542702 -994.922
-31.9568 6.91013 -994.40399
-31.7328 6.62677 -992.13702
-31.4226 6.3371 -991.39301
-31.4664 6.4330702 -990.50098
-31.379 6.3480802 -990.09601
-31.302799 6.2839999 -989.43103
-31.1105 6.0318899 -988.84399
-27.028299 4.2087998 -979.29401
-25.2418 3.6710501 -976.12701
-25.332001 3.6726699 -975.64398
-24.528799 3.233 -974.86499
-23.483801 2.9669499 -973.16602
-20.793301 2.1752601 -970.46802
-18.6409 1.47205 -968.23798
-17.3657 1.09 -967.19098
-13.6829 0.0090332003 -964.51501
-22.598801 8.6864004 -1029.14
-22.9695 8.5892897 -1027.86
-24.1747 8.7241802 -1026.4399
-24.880501 8.7870798 -1025.28
-26.033501 8.9697905 -1024.0601
-26.3507 8.7572603 -1023.06
-26.711901 8.9054604 -1022
-28.4132 8.9677095 -1018.74
-29.2549 9.09375 -1017.39
-30.2138 9.2013197 -1016.61
-30.374201 9.0560904 -1014.96
-30.750299 9.09161 -1014.13
-31.3479 8.9958801 -1012.92
-31.101 8.9750996 -1012.55
-31.828199 9.0122995 -1010.88
-32.048801 9.0374804 -1010.36
-31.993999 8.8990498 -1009.43
-32.513199 8.9072304 -1007.89
-32.5849 8.6867399 -1006.71
-32.612499 8.72153 -1005.83
-32.660301 8.6424599 -1005.18
-32.754501 8.6503296 -1004.5
-32.698502 8.5429096 -1003.89
-33.179401 8.28687 -1001.24
-33.043999 8.1410799 -1000.66
-32.842499 8.4099102 -1000.05
-32.572102 8.1539297 -999.47498
-32.3564 7.8857098 -998.935
-32.630199 8.0220003 -998.40698
-32.614799 8.1096201 -997.64301
-32.176998 7.82373 -997.151
-32.277302 7.6766701 -995.47699
-32.235401 7.6645198 -994.73499
-32.0331 7.42764 -994.23999
-31.9648 7.2304101 -993.672
-31.699499 7.5026598 -992.96698
-31.4512 7.0592699 -991.63702
-31.73 6.96805 -991.15503
-31.3234 7.1694598 -990.46802
-30.870501 6.7438698 -989.46503
-30.8657 6.79669 -988.93903
-30.445601 6.34238 -986.745
-28.622999 5.7206101 -982.63098
-28.6402 5.5257301 -981.91901
-28.253401 5.2178302 -981.30402
-27.5026 5.3583999 -980.50403
-26.93 4.9253802 -979.75201
-26.950399 4.7683702 -979.12402
-26.9231 5.2264099 -978.94098
-26.437401 4.73419 -978.37799
-25.750099 4.2438002 -976.854
-25.08 4.3178401 -976.07202
-23.672501 3.75 -973.83301
-23.4708 3.4258699 -972.97498
-22.8249 3.50015 -971.99701
-21.5872 2.9655499 -971.13098
-20.8652 2.8750601 -970.08502
-19.6686 2.3598001 -969.27301
-18.568399 2.02844 -968.15198
-16.8104 1.2974499 -967.16101
-15.9415 1.22537 -966.086
-13.1488 0.58715802 -964.38397
-18.474501 8.7533903 -1033.1899
-20.403 8.9247103 -1031.02
-21.9818 9.1094999 -1029.25
-23.7211 9.2577496 -1026.5699
-24.867399 9.4105797 -1025.25
-25.4205 9.3891897 -1024.13
-26.167601 9.45123 -1023.01
-26.668501 9.6348 -1021.88
-27.6194 9.6500902 -1020.86
-27.7267 9.5463305 -1019.95
-29.235701 9.7903099 -1017.63
-29.5606 9.6283903 -1016.76
-30.4706 9.6763601 -1014.94
-30.573999 9.5978098 -1014.11
-30.6625 9.48596 -1013.31
-30.816601 9.4921904 -1012.52
-31.4095 9.5683899 -1011.65
-31.4139 9.5366497 -1010.75
-31.666599 9.4681997 -1010.14
-31.941 9.4755602 -1009.34
-32.062401 9.4067097 -1008.61
-32.021999 9.3013296 -1007.92
-32.482899 9.4127502 -1005.5
-32.553001 9.1456604 -1004.45
-32.631401 9.0934095 -1003.83
-33.1124 9.14575 -1002.14
-33.059399 8.9941101 -1001.79
-32.8951 8.8940401 -1001.16
-32.799599 8.8102398 -1000.56
-32.6884 8.8330698 -1000
-32.991299 8.7452097 -999.33398
-32.596699 8.5026197 -998.81897
-32.734402 8.5917702 -998.315
-32.319698 8.5306101 -997.53998
-32.2994 8.3440905 -996.59003
-32.200901 8.0038795 -995.87799
-32.023998 8.1240196 -994.60797
-31.737 7.9751601 -994.35901
-31.7906 7.7024498 -993.53497
-31.4806 7.7666898 -992.24701
-31.3239 7.61169 -991.56299
-31.464399 7.7588501 -990.289
-30.846901 7.42032 -989.79498
-30.9205 7.0490999 -988.52301
-27.6637 5.7329702 -980.091
-26.052999 5.1813998 -978.35101
-25.700899 4.9236102 -977.47302
-25.649 4.9725599 -976.54901
-25.0756 4.7503099 -975.62097
-24.6693 4.59973 -975.15399
-23.5751 4.20578 -973.62799
-23.058901 3.8031001 -972.841
-21.167601 3.4040501 -971.13397
-20.2812 3.12183 -969.95599
-19.2043 2.6622 -969.12402
-18.5961 2.59531 -968.08502
-17.538799 2.0780001 -966.87201
-13.124 0.95758098 -964.07703
-21.9506 9.7431898 -1029.38
-23.7822 10.0954 -1026.3199
-25.1882 9.8637695 -1024.14
-26.1779 10.0406 -1022.99
-26.470501 9.9959698 -1022.01
-27.0233 10.0395 -1020.98
-27.7012 10.1303 -1019.95
-28.4785 10.0908 -1017.84
-28.8342 10.0134 -1016.9
-29.935499 10.2177 -1015.8
-30.7136 10.074 -1013.13
-30.8381 10.0341 -1012.47
-31.1401 10.3191 -1011.58
-31.793501 10.1659 -1010.79
-31.6702 10.0168 -1010.02
-31.9727 10.0191 -1009.28
-32.212399 9.9254799 -1007.79
-32.203899 9.8121595 -1006.47
-32.367802 9.7499399 -1005.74
-32.4105 9.5774498 -1003.78
-32.495399 9.5448904 -1003.15
-32.3186 9.5492897 -1002.58
-32.546501 9.4350901 -1001.89
-32.693699 9.4946299 -1000.32
-32.821201 9.3785696 -999.76801
-32.351101 9.08673 -998.815
-32.165199 9.1603403 -997.98102
-32.206799 8.9327097 -997.16101
-32.272099 8.8660002 -996.81598
-32.209999 8.6992197 -996.27301
-31.9751 8.9640799 -995.59802
-31.9212 8.6312599 -994.836
-31.7964 8.5659504 -994.50299
-31.787399 8.4034996 -993.935
-31.690399 8.1805096 -993.37701
-31.597 8.5271902 -992.646
-31.273399 8.16611 -991.521
-31.3745 7.9221802 -990.89899
-30.9622 7.8312101 -988.77899
-28.1562 6.63309 -982.37201
-27.816099 6.4053602 -980.987
-27.0231 6.1465802 -980.55798
-26.4622 5.8342299 -977.76801
-25.598 5.5478201 -977.41302
-25.1103 5.3810401 -976.56
-23.312599 4.6259499 -973.42401
-22.844601 4.5216999 -972.591
-19.014799 3.2732799 -968.79401
-17.967501 2.9379599 -967.68701
-14.8616 2.01724 -965.30701
-12.4365 1.4621 -963.85999
-22.037399 10.1244 -1028.1801
-23.416401 10.2988 -1026.64
-24.2819 10.5243 -1025.3
-25.587601 10.6189 -1024.1
-25.650299 10.4722 -1023.1
-25.968599 10.4019 -1022.15
-26.842501 10.6629 -1021.09
-27.367599 10.5622 -1020
-27.8619 10.5776 -1019.01
-29.109301 10.6255 -1016.93
-30.3162 10.6289 -1014.08
-30.856899 10.7836 -1013.37
-30.73 10.5423 -1012.43
-31.333099 10.5569 -1010.81
-31.545 10.5108 -1009.99
-31.4835 10.422 -1009.26
-32.167999 10.5385 -1008.45
-32.249901 10.4846 -1007.72
-32.3106 10.4918 -1005.71
-32.3078 10.3581 -1005.25
-32.8111 10.1818 -1004.16
-32.349899 9.8760405 -1003.7
-32.327499 9.9768105 -1002.5
-32.2999 10.0616 -1000.67
-32.350201 9.5998201 -998.27502
-32.0756 9.45996 -997.716
-32.4585 9.6240196 -997.19098
-32.007301 9.32938 -996.539
-32.041901 9.1531401 -996.14099
-31.822701 9.1184397 -994.33002
-31.4328 9.0465698 -992.508
-31.129 8.6279297 -991.47699
-31.4517 8.6930799 -990.88898
-30.7533 8.2937603 -988.82703
-27.629601 6.8115501 -981.59698
-27.966 6.9703999 -980.90997
-27.764 6.8526902 -979.961
-26.5881 6.35431 -979.44
-26.4767 6.6142602 -978.50702
-23.805099 5.2691998 -974.83801
-23.0532 5.1342802 -973.96698
-22.823 5.02563 -973.04401
-20.8745 4.4305701 -971.41602
-20.4361 4.2500601 -970.69098
-16.5977 3.0559101 -966.59698
-19.572599 10.4887 -1031.5601
-21.599701 10.572 -1028.24
-23.146999 10.7024 -1027.01
-24.818701 10.9822 -1024.26
-26.3433 10.9537 -1021.06
-27.1591 11.0561 -1020
-27.7778 11.0903 -1018.96
-28.086399 11.0492 -1018.06
-28.617599 11.1973 -1017.1
-29.599501 11.0565 -1014.93
-30.039101 11.1234 -1014.09
-30.9193 11.2404 -1011.33
-31.317101 11.0867 -1010.75
-31.4044 10.9784 -1009.97
-31.434 10.9135 -1009.24
-31.657301 10.9267 -1008.48
-31.9592 10.9286 -1007.74
-31.782801 10.8346 -1007.08
-32.056599 10.8283 -1006.39
-32.1973 10.353 -1003.58
-31.9557 10.1675 -999.51501
-32.094002 10.0097 -997.66602
-32.058498 10.0316 -997.06897
-31.9739 9.6855497 -995.97302
-31.8659 9.47192 -995.42999
-31.6796 9.5723896 -994.185
-31.3179 9.3495197 -993.66803
-31.116699 9.1433401 -991.42401
-30.5744 8.8859596 -989.89801
-30.2766 8.8135405 -988.27502
-27.790899 7.4980502 -982.33099
-27.5748 7.3895898 -981.37201
-27.5753 7.3039198 -979.914
-26.3951 6.9060402 -979.09399
-24.9387 6.2665401 -977.02502
-24.728399 6.2441401 -975.263
-23.642 5.72226 -974.60999
-23.0784 5.8382602 -973.65997
-22.3922 5.4408598 -973.099
-22.0536 5.3233299 -972.26898
-20.493799 4.9183698 -971.18799
-20.7992 4.7394099 -970.31403
-18.763 4.1740098 -968.52002
-16.4659 3.4316101 -966.30499
-14.3405 2.87222 -964.86798
-23.257401 11.1716 -1026.46
-23.485001 11.2871 -1025.59
-24.6087 11.4875 -1024.11
-25.4028 11.5083 -1023.13
-26.0529 11.568 -1022.07
-26.678801 11.5904 -1021.01
-27.0711 11.5688 -1019.88
-27.259001 11.4843 -1019.07
-28.616199 11.6994 -1016.95
-29.337601 11.5749 -1015.73
-29.865299 11.4077 -1014.83
-30.596001 11.6883 -1013.09
-30.589199 11.4576 -1012.33
-30.803101 11.5652 -1011.54
-31.5863 11.6898 -1010.65
-31.4641 11.5353 -1009.89
-31.4641 11.4716 -1009.14
-32.182701 11.3554 -1006.31
-32.2164 11.4813 -1005.4
-32.126999 11.2877 -1004.98
-32.045502 11.1547 -1004.55
-31.778299 10.9529 -1003.71
-32.008301 10.9858 -1003.03
-32.211102 10.5387 -1000.53
-32.020599 10.8545 -999.81702
-32.088402 10.6702 -999.40302
-31.907301 10.4787 -997.646
-31.741199 10.3275 -996.38599
-31.747601 10.1519 -995.849
-31.6346 10.1584 -995.29999
-31.6175 10.1161 -994.70801
-31.578899 10.1751 -994.005
-31.3762 9.9618502 -993.61102
-31.018801 9.6578398 -992.97302
-31.447701 9.8808002 -992.45599
-30.943501 9.6638203 -991.03003
-30.212299 9.1979704 -988.57098
-30.374001 9.0758104 -987.93298
-27.855801 7.8569298 -981.20599
-26.7883 7.4706101 -979.01898
-25.8636 7.2699299 -977.46899
-25.129101 6.9425702 -976.83301
-23.8967 6.5048199 -975.133
-23.4902 6.2244301 -974.41302
-22.931801 6.1531401 -973.46399
-22.381201 5.97156 -972.659
-21.452801 5.4365201 -971.92999
-20.0627 5.3484802 -970.96002
-20.2278 5.1261301 -970.10999
-18.4286 4.6360502 -968.276
-17.357401 4.53754 -967.09399
-13.7145 3.24368 -964.724
-21.8248 11.757 -1028.28
-22.598801 11.7326 -1026.89
-23.743099 11.9021 -1025.5
-24.6087 11.9836 -1024.33
-25.004801 11.9382 -1023.25
-25.230301 11.8807 -1022.23
-26.9932 12.0969 -1019.99
-27.185101 12.0269 -1019.08
-27.5602 12.0025 -1018.14
-28.2623 12.1045 -1017.09
-29.190001 12.0492 -1014.97
-29.5872 12.0756 -1014.08
-30.6252 11.9601 -1012.19
-31.163799 12.1723 -1011.37
-31.1478 12.0966 -1010.7
-31.0424 11.9827 -1009.91
-31.7092 11.9732 -1008.36
-31.5054 11.735 -1006.41
-31.8113 11.7193 -1005.67
-31.8391 11.4244 -1003.8
-31.944099 11.5088 -1003.01
-32.288898 11.4558 -1001.43
-32.014599 11.027 -1000.38
-31.6586 11.1192 -999.09497
-31.3715 10.7979 -996.24701
-31.5406 10.7229 -995.85901
-31.588499 10.686 -995.255
-31.073099 10.4249 -994.16602
-31.217501 10.442 -993.32599
-31.3426 10.3054 -992.742
-30.9312 10.1451 -990.85101
-30.330099 9.8135405 -989.20203
-30.181801 9.7128296 -988.41101
-27.916901 8.6113901 -981.71899
-27.5128 8.2924204 -981.06897
-26.1574 7.87573 -979.00098
-25.5686 7.9330101 -978.073
-25.824499 7.6953702 -977.638
-23.6334 6.9488502 -975.10699
-23.068701 6.7541499 -974.27301
-22.704399 6.6099901 -973.43402
-19.4142 5.4920702 -969.85602
-19.2892 5.6247902 -968.85901
-18.3361 5.1186199 -968.224
-21.4659 12.2867 -1028.4
-24.884899 12.5039 -1023.34
-24.7869 12.355 -1022.32
-26.0165 12.6676 -1020.99
-27.145399 12.4387 -1019.15
-27.617399 12.601 -1018.08
-28.9771 12.5841 -1015.95
-29.201099 12.6372 -1014.95
-29.386999 12.5594 -1014.12
-30.2173 12.6508 -1013.04
-30.4827 12.6367 -1012.2
-30.5439 12.5925 -1011.44
-30.5177 12.4866 -1010.49
-31.1066 12.5604 -1009.93
-31.329901 12.4449 -1009.42
-31.196699 12.343 -1007.74
-31.572599 12.4281 -1007.27
-31.6754 12.1118 -1006.24
-31.6017 12.2448 -1005.68
-31.660801 11.73 -1000.04
-31.712099 11.69 -998.896
-31.253799 11.2962 -996.08698
-31.6005 11.3313 -995.797
-31.3279 11.3149 -994.28198
-31.191799 11.1132 -993.729
-30.499901 10.6381 -991.91302
-30.7568 10.6661 -991.31
-30.5599 10.5422 -990.77502
-30.3818 10.2699 -988.09198
-27.9128 9.1607103 -981.53601
-27.519501 8.8341999 -980.89398
-26.0737 8.4021597 -978.96399
-24.745399 7.9263601 -977.22699
-24.8202 7.8439898 -976.47198
-24.007999 7.6417799 -975.91901
-21.747999 6.8457298 -972.59698
-21.0147 6.4085999 -971.474
-19.223 6.0094299 -969.87
-19.434799 6.3882799 -969.39697
-18.425699 5.7221398 -968.62402
-15.8223 4.9429002 -966.64899
-21.507 12.6849 -1027.16
-22.9268 12.9046 -1025.76
-23.944901 12.9673 -1024.45
-24.976999 13.1146 -1023.27
-25.2332 12.8182 -1022.32
-25.7728 13.0281 -1021.12
-26.8575 13.0785 -1019.09
-27.201099 13.0978 -1018.09
-28.414101 13.1999 -1016.68
-28.7358 12.9999 -1015.82
-29.0772 13.036 -1014.14
-30.251499 13.2416 -1013.02
-30.132099 13.0304 -1011.47
-30.5296 13.0695 -1010.72
-30.987101 13.0049 -1009.15
-30.9279 12.9026 -1008.49
-31.5257 13.1129 -1007.6
-31.521099 13.0932 -1005.45
-31.376699 12.7121 -1004.49
-31.8008 12.657 -1003.67
-31.2992 12.1305 -999.44702
-31.668501 12.2437 -998.71399
-31.1581 12.0876 -997.03601
-31.252399 11.7094 -995.17902
-30.9863 11.3976 -994.875
-30.8878 11.6809 -994.20001
-31.194599 11.5191 -993.47302
-30.8386 11.3494 -992.961
-31.1194 11.2296 -992.44397
-30.7582 11.1979 -991.25702
-30.428499 11.0048 -990.159
-30.127701 10.8656 -988.70898
-27.406601 9.4480896 -980.68597
-26.1789 8.9674101 -978.422
-25.5306 8.7080097 -977.55798
-24.798599 8.4561796 -976.70398
-24.674101 8.4008799 -976.25
-23.916201 7.9303002 -975.586
-23.511499 8.1093798 -974.651
-22.7817 7.6621099 -973.89203
-21.523701 7.3106098 -972.12201
-14.0381 4.9689898 -965.125
-20.139799 13.1969 -1028.88
-21.247801 13.2271 -1027.3199
-22.604 13.4036 -1025.85
-23.0541 13.3625 -1024.6899
-24.3892 13.5436 -1023.36
-25.6863 13.6021 -1021.11
-26.9984 13.8019 -1018.27
-27.704 13.5824 -1016.89
-28.639799 13.7284 -1015.92
-29.081499 13.6277 -1014.07
-29.6992 13.6859 -1013.13
-30.3806 13.7864 -1012.18
-30.091999 13.7317 -1011.13
-30.2089 13.6444 -1010.63
-30.230301 13.4791 -1010
-30.771099 13.7241 -1008.52
-31.123199 13.3827 -1007.04
-31.1539 13.2466 -1005.7
-31.520201 13.4451 -1004.76
-31.4659 13.0936 -1003.75
-31.4883 13.0163 -1001.56
-31.665199 12.914 -1001.01
-31.159901 12.6163 -1000.49
-31.2013 12.7192 -1000.02
-31.256201 12.8149 -999.17603
-31.007 12.2011 -997.59497
-31.152 12.4106 -996.97498
-31.2407 12.3695 -996.34698
-31.000099 12.1951 -995.80902
-31.0555 12.3755 -994.56799
-30.864401 12.1642 -994.026
-31.031401 12.0313 -993.435
-30.8307 11.8107 -992.90399
-30.7969 11.6298 -992.33801
-30.4391 11.6887 -991.24298
-30.342699 11.6204 -990.70801
-30.254499 11.2525 -989.896
-30.0306 11.5251 -989.14697
-27.7279 10.1477 -981.56598
-23.0966 8.4288902 -974.54199
-22.6523 8.25842 -973.70203
-21.877899 8.0037203 -972.89301
-21.2064 7.7132602 -972.00098
-20.5849 7.3054199 -971.14899
-20.136499 7.45331 -970.92401
-19.4834 7.2028499 -970.16498
-18.803301 6.7256799 -969.23199
-17.5972 6.6223102 -968.28601
-15.9438 6.1167898 -966.87402
-15.0443 5.7339201 -965.94
-12.9435 5.2231102 -964.42102
-11.0355 4.67944 -963.10901
-20.997299 13.7973 -1027.38
-23.193701 14.0097 -1024.71
-23.9202 13.8272 -1023.43
-24.84 14.1204 -1022.27
-26.8249 14.1121 -1018.16
-27.5889 14.1057 -1016.87
-28.205 14.2545 -1015.99
-28.835501 14.3326 -1014.97
-28.7953 14.1335 -1014.11
-28.942499 14.0717 -1013.34
-29.929899 14.1584 -1011.55
-29.865801 14.0547 -1010.77
-30.7309 13.8858 -1009.02
-30.968399 13.9333 -1007.04
-31.0555 13.873 -1006.35
-31.156601 13.6708 -1005.77
-31.147699 13.7664 -1005.03
-30.9403 13.6592 -1004.41
-31.219999 13.664 -1003.68
-31.0931 13.3661 -1003.08
-31.3193 13.4341 -1001.35
-31.221901 13.2317 -999.35303
-30.959801 13.0981 -998.79498
-30.965599 12.9235 -996.93903
-30.803301 12.6558 -995.68402
-31.1483 12.5832 -995.10101
-30.983299 12.682 -993.84497
-30.541 12.4721 -993.453
-30.756701 12.2824 -992.74799
-30.2945 12.1689 -990.89801
-29.840799 11.9418 -989.65302
-29.840099 11.8402 -987.99298
-29.4431 11.6841 -986.42297
-27.134399 10.5933 -981.10199
-26.760799 10.3531 -979.65997
-26.08 10.1862 -978.92902
-25.7717 9.9482098 -978.35602
-25.379999 9.8045301 -977.45099
-24.398001 9.4636803 -976.62799
-24.5781 9.40201 -975.914
-23.8925 9.2532997 -975.297
-22.5021 8.83459 -974.39301
-22.477699 8.6345797 -973.54199
-21.5881 8.5892601 -972.61902
-20.772499 8.2346497 -971.646
-20.033701 7.9551401 -970.89099
-19.526899 7.7049298 -969.901
-14.343 6.05441 -965.69299
-12.4547 5.6533198 -964.09601
-16.937401 13.8022 -1031.4399
-19.305 14.1703 -1029.25
-22.139999 14.516 -1026.04
-22.9799 14.5365 -1024.73
-23.651899 14.51 -1023.54
-24.2577 14.5738 -1022.42
-24.7222 14.5498 -1021.29
-25.767 14.7012 -1020.15
-26.2808 14.6711 -1019.17
-27.868799 14.6111 -1015.24
-28.5977 14.67 -1014.13
-28.733801 14.5819 -1013.31
-29.1733 14.6351 -1012.52
-29.407301 14.6046 -1011.68
-29.7873 14.6109 -1010.8
-30.324301 14.6378 -1009.78
-30.2134 14.4785 -1009.3
-30.4123 14.5097 -1008.49
-30.6364 14.4622 -1007.76
-30.6397 14.426 -1007.11
-30.8318 14.3683 -1006.6
-30.783001 14.3274 -1005.74
-30.8962 14.1872 -1004.38
-30.880199 14.1154 -1003.7
-30.9515 13.9459 -1001.78
-31.559799 14.0112 -1000.97
-31.0947 13.4153 -997.81403
-30.742701 13.4428 -996.63501
-30.4044 13.0284 -995.58197
-30.921801 13.3519 -994.24902
-30.614401 13.1014 -993.73602
-30.6574 12.9696 -993.15002
-30.1236 12.8057 -991.367
-30.173599 12.6482 -990.76001
-30.108 12.4337 -990.15997
-29.8638 12.3708 -987.95203
-27.206699 11.1254 -981.508
-26.7831 11.0254 -980.95398
-25.6516 10.5096 -978.75598
-25.204901 10.316 -977.42603
-24.496 10.0682 -976.55298
-23.015499 9.5426302 -974.88599
-22.915899 9.4594698 -974.16803
-22.246401 9.4956703 -973.21002
-21.391199 9.0492601 -972.46399
-19.8132 8.4635 -970.86102
-18.982201 8.1933899 -969.67603
-18.0928 8.0552101 -968.65802
-15.6284 7.2699299 -966.45099
-19.203899 14.8236 -1029.4399
-21.403 15.0061 -1026.1801
-22.4084 15.0065 -1024.89
-23.3407 15.0356 -1023.59
-23.915001 15.0309 -1022.51
-25.294201 15.1376 -1020.26
-25.891701 14.9324 -1019.38
-26.302601 15.1781 -1018.27
-26.941999 15.229 -1017.28
-27.292801 15.1823 -1016.32
-27.546301 15.1169 -1015.46
-28.424 15.3123 -1014.12
-28.935699 15.0377 -1012.6
-29.0383 15.3274 -1011.58
-30.035601 14.9009 -1009.17
-30.155899 15.0001 -1008.57
-30.273399 14.9889 -1007.84
-30.2817 14.8872 -1007.19
-30.557501 14.9044 -1006.42
-30.569799 14.7609 -1005.13
-30.5783 14.6522 -1004.35
-30.8561 14.6901 -1003.68
-31.199699 14.5805 -1003.3
-30.440201 14.1655 -999.95801
-30.8482 14.3133 -999.37299
-30.6168 14.0725 -998.13501
-30.679199 13.8964 -996.28699
-30.7031 13.7811 -995.08398
-30.694799 13.8255 -994.10999
-30.5452 13.6179 -993.56598
-30.1682 13.4392 -992.84302
-30.283701 13.1954 -992.49103
-30.072399 13.4889 -991.75702
-30.032 13.252 -991.15503
-30.292801 13.2004 -990.55298
-29.819799 12.7423 -989.44501
-29.728001 12.8232 -987.94501
-26.712799 11.5292 -980.77802
-25.671101 11.3009 -979.37097
-25.511499 11.016 -978.72101
-24.011499 10.437 -976.39899
-22.5168 9.8447599 -974.00098
-21.1572 9.4307604 -972.37402
-20.5341 9.2502699 -971.573
-16.3461 7.9219699 -967.46198
-21.408899 15.4734 -1026.27
-21.668501 15.3443 -1025.05
-22.781401 15.4619 -1023.79
-23.702101 15.5351 -1022.57
-24.346201 15.5418 -1021.4
-24.961201 15.612 -1020.36
-25.721701 15.656 -1019.24
-26.149799 15.6601 -1018.29
-26.457701 15.6316 -1017.37
-27.0443 15.6572 -1016.41
-27.43 15.6522 -1015.47
-28.199699 15.9198 -1014.29
-28.295601 15.6187 -1013.46
-28.7719 15.563 -1011.81
-29.3256 15.6015 -1010.93
-29.4261 15.5172 -1010.16
-29.712999 15.5013 -1009.37
-30.077299 15.5066 -1008.57
-30.1024 15.4682 -1007.87
-30.4203 15.4823 -1007.14
-30.4965 15.3353 -1005.74
-30.6138 15.2906 -1005.07
-30.6439 15.2235 -1004.37
-30.979401 14.6752 -1000.38
-30.5921 14.7244 -999.34302
-30.774799 14.7187 -998.68799
-30.378401 14.3855 -998.12598
-30.4265 14.3483 -996.27301
-30.3458 14.2718 -993.98499
-30.3843 14.083 -993.33197
-30.202299 13.8782 -992.86798
-30.4153 13.7735 -992.276
-29.902201 13.6384 -990.42102
-29.2164 13.3468 -988.46399
-26.5895 12.0424 -981.48999
-26.610201 11.994 -980.62701
-25.429399 11.547 -979.16498
-25.569599 11.5481 -978.65698
-24.6516 11.0924 -977.86102
-24.2236 11.2494 -976.94702
-23.542101 10.7719 -975.16302
-22.3871 10.3252 -973.828
-21.9667 9.9578199 -973.03198
-21.3556 10.0568 -972.73499
-20.725901 9.81458 -971.94098
-20.313801 9.5177298 -971.29303
-19.518299 9.41043 -970.34802
-18.2264 9.00916 -969.22998
-17.2363 15.443 -1030.1801
-20.4487 16.069099 -1026.74
-22.616301 15.9731 -1023.82
-23.364401 16.002899 -1022.67
-24.5833 16.035999 -1020.42
-24.9049 16.0026 -1019.41
-26.1047 16.086901 -1017.41
-26.6642 16.1159 -1016.61
-27.1882 16.030001 -1015.67
-28.775299 16.234699 -1012.57
-29.4333 16.1924 -1010.86
-29.2859 16.0881 -1010.28
-29.7099 16.013599 -1007.74
-29.9489 15.8784 -1007.21
-29.930201 15.8093 -1006.49
-30.4671 15.8835 -1005.7
-30.119801 15.8498 -1005.09
-30.278999 15.4406 -1003.6
-30.599199 15.5222 -1002.29
-31.138201 15.5546 -1000.99
-30.2365 15.3183 -999.55103
-30.6122 15.0583 -997.45203
-30.0432 14.5208 -995.12299
-29.922899 14.7072 -993.86603
-30.1682 14.5516 -993.32098
-30.1985 14.4209 -992.69098
-29.964001 14.2073 -992.18402
-29.808901 14.3924 -990.83899
-29.3577 13.9771 -989.526
-29.252899 13.8516 -988.896
-29.206499 13.759 -987.90198
-25.236601 11.9948 -978.65802
-22.5667 11.1284 -974.41498
-22.3543 10.9042 -973.89398
-21.1882 10.8038 -972.72101
-20.844801 10.4643 -971.87097
-20.0606 10.1309 -971.07599
-19.059 9.9916697 -970.03198
-18.5735 9.5754995 -969.11902
-12.5444 7.85989 -964.68201
-22.1654 16.431499 -1023.99
-23.752199 16.534401 -1021.54
-24.504 16.6024 -1020.42
-25.1847 16.6297 -1019.38
-25.3538 16.794001 -1018.37
-25.972 16.603399 -1017.49
-26.3654 16.597099 -1016.49
-27.992901 16.626301 -1013.49
-28.292101 16.547899 -1012.66
-28.5623 16.8473 -1011.65
-28.660299 16.477699 -1011
-29.347799 16.587799 -1010.11
-29.381201 16.4925 -1009.66
-29.637199 16.4809 -1008.6
-29.6917 16.411501 -1007.88
-29.906401 16.3964 -1007.19
-30.335899 16.3615 -1006.46
-29.937599 16.246599 -1005.78
-30.023399 16.3603 -1004.94
-30.2166 16.1684 -1004.33
-30.4254 16.163799 -1003.66
-30.5905 15.8977 -1002.93
-30.4769 16.23 -1002.21
-30.864401 16.026699 -1001.13
-30.129 15.774 -1000.56
-30.5994 15.8129 -998.789
-30.302 15.2172 -994.41101
-30.185699 15.3409 -993.64001
-29.9261 14.9185 -992.745
-29.8314 14.7451 -991.987
-29.7479 14.5319 -991.41602
-29.4818 14.6018 -990.53101
-29.4296 14.4455 -989.51501
-26.363501 12.9712 -980.91302
-26.635799 13.0308 -980.396
-25.358 12.5219 -978.09998
-24.8374 12.1501 -977.44501
-23.9363 11.9681 -975.93903
-22.3361 11.6264 -974.24701
-20.9142 11.0427 -971.62402
-18.6735 10.4179 -969.849
-15.3734 9.2114897 -966.59998
-12.5861 8.3811998 -964.61298
-18.8892 16.7906 -1028.42
-20.1688 16.915701 -1026.75
-20.6299 16.7761 -1025.42
-22.253799 16.995199 -1024
-23.004101 17.0478 -1022.75
-24.0469 17.0219 -1020.52
-24.799601 17.073799 -1019.42
-25.5084 17.3027 -1018.16
-25.990299 17.185301 -1017.42
-26.4569 17.165199 -1016.47
-26.8549 17.1399 -1015.58
-27.692301 17.0996 -1013.54
-28.072901 17.149 -1012.66
-28.942101 17.0142 -1010.06
-29.238701 17.020201 -1009.34
-29.349501 16.9491 -1008.58
-29.6644 16.917 -1007.85
-29.8713 16.8083 -1004.77
-30.2117 16.701599 -1004.38
-30.318501 16.4163 -1001.12
-30.0049 16.356199 -999.20001
-30.139299 16.1255 -998.67297
-30.2048 15.9843 -995.80603
-29.9011 15.5674 -994.78003
-30.2281 15.6948 -994.38702
-29.9172 15.4538 -992.70398
-29.5236 15.1943 -991.84802
-28.9886 14.648 -988.836
-28.871099 14.9294 -988.08301
-26.0499 13.3238 -980.13501
-24.9093 12.9337 -978.60699
-24.735001 12.8154 -977.20599
-23.6252 12.4279 -976.39001
-23.8461 12.4886 -975.61603
-22.1618 11.9033 -973.80603
-20.0037 11.3142 -971.54498
-19.7806 11.0193 -970.65198
-18.212999 10.5887 -969.505
-17.371 16.974001 -1028.91
-20.6227 17.4722 -1025.4399
-21.342699 17.438499 -1024.5601
-22.9179 17.461201 -1021.77
-24.0112 17.611 -1020.53
-24.8442 17.7068 -1019.43
-25.120199 17.846399 -1018.48
-25.8431 17.7108 -1017.45
-26.168301 17.664801 -1016.51
-26.583401 17.656601 -1015.59
-27.643499 17.6469 -1013.58
-28.948799 17.5938 -1010.15
-29.1569 17.431101 -1009.4
-29.379601 17.455099 -1007.86
-29.4716 17.323299 -1006.56
-29.405001 17.505501 -1005.6
-29.5061 17.1917 -1005.18
-30.1362 17.1882 -1003.75
-30.248699 17.085899 -1002.3
-30.0263 16.9063 -1001.16
-30.0135 16.43 -997.45398
-30.031401 16.485701 -995.65601
-29.8936 16.293699 -995.13397
-29.757799 16.034 -993.22803
-29.5732 16.0166 -992.80603
-29.6252 15.8867 -992.22803
-29.279699 15.7333 -991.61499
-29.314699 15.4444 -991.13
-29.1954 15.6092 -990.487
-28.918501 15.4633 -989.40997
-28.483299 15.201 -987.88
-28.634501 15.1871 -987.31897
-24.9722 13.6754 -978.51501
-24.938299 13.478 -978.086
-22.4345 12.5633 -974.63098
-22.0061 12.6148 -973.83698
-21.678499 12.2676 -972.92603
-20.5362 11.7283 -972.37201
-19.228901 11.4766 -970.58801
-14.9949 10.1458 -966.54401
-20.186199 17.91 -1025.61
-22.317301 18.1171 -1022.98
-22.8365 18.0354 -1021.81
-23.452101 18.037901 -1020.68
-24.2108 18.0889 -1019.58
-24.8624 18.132401 -1018.5
-25.336399 18.1322 -1017.54
-25.810499 18.1229 -1016.59
-26.0319 18.0704 -1015.7
-26.535 18.0816 -1014.76
-28.486799 17.9529 -1011.73
-28.628901 18.0513 -1010.16
-28.708 17.9869 -1009.43
-29.129 17.7964 -1008.73
-28.5756 18.008699 -1008.08
-29.5972 18.0168 -1007.14
-29.5217 17.889999 -1006.49
-29.466999 17.8997 -1004.89
-29.546801 17.634701 -1003.9
-29.941 17.582399 -1003.33
-29.940201 17.6455 -1001.66
-29.6772 17.171101 -999.315
-29.939899 17.1779 -998.638
-30.153 17.2927 -998.29303
-30.0289 16.9515 -997.28601
-29.7784 16.5872 -996.23499
-29.7213 16.7904 -995.591
-30.119801 16.8484 -994.93298
-29.566601 16.583401 -993.82098
-29.643999 16.368 -992.05603
-29.1768 16.2383 -991.56097
-28.988001 16.336201 -990.86499
-28.8804 15.9834 -989.375
-28.507 15.7638 -987.82001
-28.4652 15.6188 -987.18799
-26.0961 14.5552 -981.29797
-25.8918 14.4306 -980.35101
-25.5884 14.2828 -979.39398
-23.523899 13.535 -976.76801
-23.751499 13.2542 -976.18402
-22.957701 13.2833 -974.979
-22.128799 13.027 -974.61298
-19.491301 12.1007 -970.93799
-18.778 11.8523 -970.16998
-17.823 11.746 -969.276
-17.063499 11.2447 -968.35498
-14.5265 10.5455 -966.15198
-12.7286 10.0306 -964.81097
-10.1489 9.3208904 -963.24902
-21.0961 18.3472 -1024.27
-23.3298 18.5956 -1020.73
-24.2106 18.700199 -1019.64
-24.589199 18.6579 -1018.6
-24.760599 18.571899 -1017.67
-25.2719 18.594999 -1016.65
-26.3897 18.775999 -1014.81
-26.896299 18.666599 -1013.88
-27.0135 18.4352 -1013.04
-27.533899 18.603001 -1012.13
-28.2908 18.590401 -1010.25
-28.3442 18.373501 -1009.57
-29.053499 18.433901 -1007.27
-28.5868 18.334 -1005.3
-29.252399 17.9827 -1002.59
-29.6749 17.6598 -998.21997
-29.766399 17.563999 -997.37799
-29.057899 17.3641 -996.00098
-29.244101 17.219601 -995.62799
-29.108299 17.077499 -994.43799
-29.6035 17.1901 -993.021
-29.2327 16.937099 -992.68701
-29.2733 16.8904 -992.08197
-29.173201 16.5481 -991.409
-28.9149 16.798401 -990.69897
-28.764999 16.402901 -989.53101
-28.6549 16.209299 -988.95502
-27.726101 16.076799 -985.66901
-27.938499 15.9528 -985.00201
-26.4725 15.1191 -981.75403
-25.7826 14.9941 -980.79199
-24.5168 14.8745 -978.87201
-24.550301 14.4667 -978.49902
-24.809799 14.5444 -978.005
-23.355301 14.2324 -975.81201
-22.961399 13.905 -975.07397
-22.028999 13.4112 -974.40399
-21.584499 13.414 -973.71802
-20.5851 13.0268 -972.50098
-20.334999 12.9606 -972.08301
-18.7199 12.4001 -970.10999
-17.6063 12.0602 -968.98602
-16.3041 11.6733 -967.89502
-15.6017 11.4532 -967.15399
-19.317301 18.908899 -1026.08
-20.4608 18.965599 -1024.6
-21.4762 19.0618 -1023.25
-22.136801 19.0578 -1022.05
-22.652 19.0501 -1020.9
-23.419399 19.0847 -1019.77
-24.2274 19.128799 -1018.68
-24.418501 19.070499 -1017.74
-25.015499 19.118401 -1016.75
-25.5959 19.391899 -1015.61
-25.764799 19.033199 -1014.91
-26.5499 19.1413 -1013.95
-27.3118 19.288099 -1013
-27.7087 19.0319 -1010.32
-28.2661 19.0564 -1009.53
-28.3939 18.7838 -1008.9
-28.4811 19.189899 -1008.16
-28.9482 18.893101 -1006.66
-29.2057 18.891399 -1005.93
-28.988501 18.559799 -1003.27
-29.2908 18.582001 -1002.54
-29.658899 18.320601 -1000.3
-29.4167 18.261101 -999.276
-29.4009 18.068899 -998.10498
-29.6099 17.992599 -997.53003
-29.408501 17.7833 -994.93597
-29.115801 17.5473 -993.21503
-29.0135 17.4028 -992.073
-28.650299 17.4205 -991.13599
-28.569599 17.1429 -990.435
-28.861799 17.141701 -989.92902
-28.6292 16.9004 -989.37201
-28.3836 17.1418 -988.62903
-28.1227 16.8097 -988.27802
-28.156099 16.7456 -987.47601
-27.917999 16.6716 -987.177
-26.3209 15.7576 -981.71198
-25.387199 15.3962 -980.29102
-24.3216 15.1484 -977.96198
-23.9186 14.7829 -977.08801
-23.4786 14.4961 -976.57703
-22.9739 14.44 -975.80103
-21.322599 13.95 -973.31201
-19.3645 13.1741 -970.85901
-18.452499 12.6842 -969.99701
-18.170799 12.7843 -969.711
-17.471901 12.6114 -968.88
-18.750601 19.3533 -1026.26
-20.105499 19.3445 -1024.8199
-21.2015 19.5648 -1023.4
-22.6975 19.660299 -1020.92
-23.490101 19.682199 -1019.78
-23.9694 19.677099 -1018.73
-24.6325 19.7612 -1017.87
-24.996201 19.691999 -1016.74
-25.741501 19.7493 -1015.74
-25.3932 19.5408 -1014.97
-26.5679 19.7551 -1013.91
-26.571501 19.5394 -1013.12
-28.087799 19.554701 -1009.67
-28.235001 19.4245 -1009.15
-28.0944 19.3661 -1007.52
-28.691601 19.513399 -1007.02
-28.562901 19.3214 -1006.06
-28.726601 19.275499 -1005.34
-28.5553 19.0996 -1003.98
-28.6507 19.044901 -1003.3
-29.179001 18.987101 -1002.9
-29.069799 19.006701 -1001.9
-29.123699 18.9324 -1001.2
-28.9 18.795 -999.06097
-29.099199 18.666401 -998.68701
-28.9328 18.4447 -997.97998
-29.200399 18.552099 -997.40002
-29.4484 18.509001 -996.10699
-29.413 18.3832 -994.888
-28.875999 18.3344 -993.89398
-28.9958 18.2092 -993.31299
-28.8878 17.9853 -992.659
-29.020399 17.8853 -992.20502
-28.8018 18.1292 -991.49103
-28.430799 17.851999 -990.97498
-28.2621 17.615601 -990.43597
-28.519699 17.6369 -989.82501
-28.574301 17.383499 -989.18701
-28.1301 17.6341 -988.45697
-28.120701 17.450399 -987.87701
-27.007401 16.704399 -983.94598
-25.256201 16.0368 -979.961
-24.314199 15.5189 -977.95502
-23.222601 15.1131 -976.64001
-21.775999 14.583 -974.03998
-20.435801 13.9696 -972.39502
-18.327 13.4178 -970.71802
-17.690701 13.2219 -968.84698
-16.447399 12.844 -967.73297
-22.250401 20.0119 -1021.09
-23.5259 20.2735 -1018.7
-24.2897 20.209 -1017.79
-25.462799 20.2731 -1015.8
-25.745899 20.2295 -1014.9
-26.26 20.264299 -1013.98
-26.1537 20.1024 -1013.22
-26.834999 20.1717 -1012.26
-26.9272 20.108999 -1011.46
-27.3375 20.098499 -1010.58
-27.239799 19.9573 -1010
-27.487499 19.965401 -1009.03
-27.947701 19.9324 -1007.4
-28.2988 19.9154 -1006.78
-28.3382 19.754999 -1006.37
-28.295099 19.941099 -1005.29
-28.5574 19.643999 -1003.94
-28.788401 19.6458 -1003.22
-29.147499 19.452999 -1002.74
-29.033701 19.4781 -1001.21
-28.578899 19.1602 -1000.61
-29.0982 19.3568 -999.89203
-28.931101 19.405199 -999.328
-29.122601 19.2285 -998.63397
-28.6654 19.0772 -996.60699
-29.1593 18.875299 -994.88397
-29.3305 18.614799 -994.36401
-28.903999 18.851101 -993.70801
-28.8423 18.6717 -993.15002
-28.6723 18.504601 -992.65399
-28.717899 18.4209 -992.04901
-28.642799 18.4841 -990.75702
-28.3459 18.189501 -990.375
-28.2043 17.825001 -989.065
-27.9841 17.966801 -987.71503
-27.790199 17.7068 -987.06897
-27.638901 17.489799 -986.54901
-27.275299 17.7561 -985.78998
-26.835899 17.2451 -985.12799
-27.2491 17.371099 -984.55603
-26.8578 17.082899 -983.92798
-25.8979 16.778099 -981.664
-25.742201 16.537701 -981.258
-25.5149 16.588699 -980.66901
-24.566999 16.251801 -979.77698
-22.924999 15.3432 -976.29498
-22.649599 15.5449 -975.47803
-21.879 15.1698 -974.37201
-21.5634 15.08 -973.95697
-19.189501 14.2378 -970.65302
-18.1245 14.1703 -969.66199
-17.383499 13.6529 -968.73602
-16.1866 13.283 -967.63702
-11.3383 11.8848 -963.90698
-18.039 20.431499 -1026.73
-19.4631 20.552099 -1025.0601
-20.8946 20.534901 -1022.45
-22.9799 20.518801 -1019.97
-23.8468 20.6357 -1017.86
-24.1971 20.619499 -1016.91
-25.007099 20.723 -1015.88
-25.4659 20.712 -1014.96
-25.2623 20.541 -1014.14
-26.116899 20.6474 -1013.21
-26.403099 20.615 -1012.31
-26.6521 20.560801 -1011.49
-27.125799 20.5819 -1010.61
-27.0945 20.429701 -1009.84
-27.2819 20.474001 -1009.09
-27.504801 20.592501 -1008.24
-27.6423 20.3384 -1007.53
-28.041901 20.360701 -1006.77
-27.973 20.1744 -1005.44
-28.246799 20.1863 -1004.66
-28.3633 20.1483 -1004.13
-28.681499 20.1493 -1003.22
-28.5473 19.7644 -1002.67
-28.675699 19.9844 -1001.91
-29.15 20.144899 -1001.4
-28.736 19.8435 -1000.56
-28.6252 19.737301 -999.961
-29.024799 19.655701 -997.95099
-28.4564 19.1975 -995.40399
-29.294701 19.131901 -994.19299
-28.429701 19.077101 -993.01898
-28.5436 18.938801 -992.47998
-28.662001 18.815599 -991.89203
-28.662901 18.632401 -991.33398
-28.024 18.5508 -989.836
-28.041401 18.3808 -987.617
-27.3955 18.1768 -987.11902
-27.376101 18.0867 -985.51202
-27.331699 18.0513 -985.00098
-26.6607 17.7985 -984.52802
-26.6306 17.580601 -983.78699
-26.6663 17.3941 -983.13098
-25.7547 17.299299 -981.78802
-25.3682 17.110201 -981.09198
-24.768499 16.785801 -979.16699
-24.300501 16.5994 -978.22699
-23.765499 16.3069 -976.896
-23.151699 15.9598 -976.22998
-23.0303 16.1409 -975.35101
-22.131701 15.7518 -974.68402
-21.7164 15.3526 -973.90198
-20.3724 15.116 -972.17499
-19.909599 15.2173 -971.28003
-19.075399 14.7248 -970.526
-11.3936 12.3867 -964.08698
-17.1859 20.7609 -1027.0699
-18.378799 20.835899 -1025.42
-19.627701 20.9263 -1023.9
-21.476101 21.0681 -1021.32
-22.873199 21.2153 -1019.99
-23.1451 21.385799 -1018.78
-23.429701 21.1063 -1017.98
-24.1523 21.144501 -1016.98
-24.4151 21.0956 -1016.01
-25.3727 21.174299 -1014.08
-26.0161 21.1824 -1013.21
-25.8619 21.0287 -1012.41
-26.5193 21.306601 -1011.57
-26.791 21.059401 -1010.67
-26.9133 21.005899 -1009.88
-27.2987 20.996799 -1009.06
-27.537701 20.9377 -1008.22
-27.679399 20.910101 -1007.51
-27.863001 20.857599 -1006.77
-27.929701 20.8078 -1006.08
-28.056601 20.7638 -1005.38
-28.6602 20.753901 -1003.91
-28.2988 20.5877 -1003.28
-28.589001 20.4807 -1001.88
-28.931499 20.5158 -1001.14
-29.098301 20.4842 -1000.65
-28.494301 20.054501 -998.02399
-29.082899 20.129801 -997.289
-28.601601 19.816299 -995.211
-28.991301 19.847 -994.84399
-28.657499 19.321899 -993.55298
-28.6591 19.7155 -992.80902
-28.473301 19.4652 -992.302
-28.224701 19.2304 -990.88202
-27.919399 19.0555 -989.76898
-28.3041 19.136499 -989.28101
-27.7353 18.8657 -988.14398
-27.564899 18.7882 -986.79999
-27.328699 18.6891 -984.88702
-26.8277 18.384199 -984.33002
-26.2253 18.0331 -983.44397
-26.560699 17.900101 -983.06201
-26.2673 18.1392 -982.32898
-26.4748 17.9827 -981.62402
-25.9126 17.651501 -981.013
-25.4312 17.323 -980.37799
-24.681499 17.2861 -979.55701
-24.2619 17.1917 -977.48798
-23.866301 16.8452 -976.79498
-22.905199 16.694201 -975.21802
-22.1943 16.261801 -974.52802
-20.8293 15.8042 -972.95203
-20.601 15.6326 -972.08801
-19.3433 15.3686 -970.242
-18.057899 14.8961 -969.33801
-16.753201 14.7038 -968.43201
-16.138901 14.1999 -967.49597
-14.9091 13.9592 -966.39697
-16.6992 21.246201 -1027.33
-19.4326 21.466499 -1024.01
-21.2742 21.539101 -1021.43
-21.882601 21.5704 -1020.24
-22.5427 21.573299 -1019.13
-23.3909 21.6443 -1018
-23.6665 21.595699 -1017.03
-24.268801 21.5989 -1016.06
-24.931801 21.6369 -1015.07
-25.841801 21.6677 -1013.25
-25.7908 21.5499 -1012.43
-26.322901 21.5781 -1011.53
-26.621901 21.5485 -1010.67
-26.512199 21.4063 -1009.93
-27.2124 21.5243 -1009.04
-27.550301 21.415501 -1007.51
-27.747499 21.2621 -1006.53
-27.9571 21.121401 -1005.92
-27.6779 21.1896 -1005.44
-28.048599 21.155001 -1004.65
-28.281 21.2932 -1004.19
-28.090799 21.046301 -1003.27
-28.427601 21.385 -1002.63
-28.4506 20.901899 -1001.19
-28.746599 20.6595 -997.84497
-28.6675 20.5422 -997.328
-29.047501 20.4139 -996.76898
-28.224501 20.233801 -995.07898
-28.4333 20.1474 -994.31702
-28.483 19.9683 -993.95697
-28.3577 19.989901 -992.117
-27.842199 19.734699 -991.46198
-28.250099 19.7911 -990.81299
-28.0826 19.9818 -990.37
-28.1576 19.564501 -989.08301
-27.6859 19.361799 -988.02698
-27.7204 19.023399 -987.401
-27.369301 19.220501 -986.76001
-27.439301 19.058701 -986.14801
-26.604099 18.6661 -984.328
-26.977301 18.7246 -983.78198
-26.6826 18.4573 -982.97302
-25.7103 18.1642 -980.88898
-25.3365 18.2889 -980.16998
-24.0397 17.8533 -978.05499
-24.0273 17.643499 -977.34698
-23.674601 17.3587 -976.71802
-22.8284 16.892401 -976.03699
-22.191299 16.828501 -975
-21.759199 16.696899 -974.38501
-21.832001 16.488001 -973.59198
-20.416901 16.182199 -972.01703
-16.1674 14.8162 -967.40601
-13.8859 14.083 -964.95398
-17.8832 21.876301 -1025.74
-20.312 22.0404 -1022.69
-21.9848 22.1856 -1020.28
-23.3407 22.225 -1018.03
-23.608 22.1425 -1017.04
-24.888201 22.222799 -1015.06
-24.856701 22.056601 -1014.24
-25.2432 22.059 -1013.35
-25.781799 21.8617 -1012.39
-26.0977 21.963699 -1010.78
-26.707001 22.032499 -1009.88
-26.7752 21.930901 -1009.15
-27.0576 22.142401 -1008.26
-27.3908 21.9154 -1007.3
-27.280399 21.780899 -1006.82
-27.936501 21.6012 -1003.97
-28.312401 21.2241 -1002.18
-28.314199 21.4492 -1000.98
-28.271999 21.2855 -999.89099
-28.2824 21.119699 -998.62903
-28.333 20.9818 -997.35199
-28.548401 20.891399 -996.08502
-28.767599 21.115801 -995.38
-28.185101 20.805799 -994.89099
-28.3853 20.691999 -994.26099
-28.503599 20.6626 -993.63501
-28.7087 20.681101 -992.98999
-28.212999 20.322399 -991.28101
-28.2964 20.2292 -990.88397
-28.125099 20.3505 -989.67798
-28.1556 20.1705 -989.091
-27.859699 19.753799 -987.91199
-27.6357 19.7852 -987.38098
-27.4741 19.757799 -986.63898
-27.1707 19.513599 -986.08301
-26.473101 19.2556 -983.79199
-25.4457 18.676399 -980.82599
-25.292999 18.850201 -980.07397
-24.6952 18.330601 -979.41199
-23.820999 17.9354 -977.56097
-23.3339 17.788 -976.63098
-22.701401 17.424999 -975.90302
-22.9664 17.8248 -975.06702
-22.159901 17.3666 -974.354
-20.5623 16.813101 -971.96399
-19.177299 16.2146 -970.25403
-18.2598 15.9337 -969.5
-16.183001 15.3934 -967.44
-13.9608 14.7042 -965.15601
-18.2173 22.349199 -1024.52
-20.221901 22.5741 -1022.04
-21.719101 22.6663 -1020.38
-21.777 22.5315 -1019.36
-23.031401 22.730499 -1018.14
-23.5396 22.701599 -1017.12
-24.4517 22.6623 -1015.15
-24.684799 22.734699 -1014.53
-25.1693 22.641199 -1013.36
-25.5103 22.5179 -1011.66
-26.1287 22.5697 -1010.67
-26.2386 22.489599 -1009.96
-26.614 22.4834 -1009.12
-27.118 22.507999 -1008.29
-26.9846 22.371099 -1007.59
-27.359301 22.5103 -1005.46
-27.495501 22.159201 -1004.7
-27.893299 22.1812 -1003.94
-27.859699 22.021999 -1003.54
-27.5847 21.700899 -1002.57
-27.852699 21.918699 -1001.9
-27.9445 21.8556 -1001.24
-28.2104 21.776899 -999.883
-28.247999 21.532101 -997.297
-28.3512 21.5068 -996.66199
-28.0917 21.0805 -995.98401
-28.456499 21.381701 -995.35498
-28.271 21.2607 -994.74402
-28.347799 21.214701 -994.11401
-28.4802 21.1814 -993.48401
-28.386499 21.0909 -991.93597
-28.1064 20.825701 -991.19098
-28.2903 20.712601 -990.81097
-28.1663 20.5352 -990.26801
-27.771999 20.5867 -989.51001
-28.1619 20.6427 -988.883
-27.567699 20.425501 -988.41498
-27.607201 20.1579 -987.83801
-27.3281 20.4184 -987.08698
-27.6304 20.321501 -986.43103
-26.867201 20.0159 -985.25
-26.876699 20.099001 -984.55902
-26.7349 19.7939 -983.112
-26.301201 19.566299 -982.10602
-25.917299 19.4126 -981.35999
-25.371799 19.0172 -980.76501
-25.621599 19.4659 -979.96698
-24.835699 18.8668 -979.23401
-24.9235 18.846201 -978.68103
-24.1523 18.5783 -977.83899
-24.057301 18.7745 -977.24103
-23.540199 18.341299 -976.46399
-22.9109 18.102301 -975.60101
-22.6602 18.3081 -975.00098
-22.4069 17.882401 -974.23199
-21.6861 17.6101 -973.39899
-21.0674 17.4039 -972.57599
-16.6485 15.968 -967.46399
-14.9612 15.4535 -966.01703
-19.147499 23.030899 -1023.17
-20.689501 22.9764 -1020.65
-22.710199 23.226299 -1018.23
-22.9424 23.1199 -1017.25
-23.524 23.0177 -1015.36
-24.173 23.068501 -1014.39
-24.6474 23.089199 -1013.46
-25.118099 23.0863 -1012.55
-25.689301 23.126801 -1011.64
-25.751301 23.035299 -1010.84
-25.8046 22.9366 -1010.05
-26.539 22.9172 -1008.37
-26.828199 22.916901 -1007.57
-26.9562 22.830999 -1006.83
-27.386 22.797899 -1005.38
-27.1007 22.9107 -1004.89
-27.382999 22.5968 -1004
-27.5474 22.472601 -1002.61
-27.893999 22.487801 -1001.87
-28.2384 22.5881 -1000.65
-28.0495 22.331699 -999.81201
-28.232201 22.334101 -998.00299
-28.3962 22.0674 -997.12402
-28.486 22.0455 -996.466
-28.5109 21.975401 -995.82501
-28.603901 22.130199 -995.21198
-28.186701 21.6682 -994.04498
-28.570101 21.665899 -993.55402
-28.296801 21.758499 -992.33002
-28.1791 21.5646 -991.81299
-28.305401 21.4154 -991.229
-28.0714 21.1754 -990.698
-28.223 21.067301 -990.099
-27.717199 21.2623 -989.43799
-27.680401 21.052 -988.336
-27.836599 21.0247 -987.75299
-27.8041 21.072201 -986.98401
-27.576 20.669201 -985.77197
-26.6497 20.3314 -984.03497
-26.634701 20.1511 -983.30603
-26.386999 20.113199 -982.48297
-26.1294 20.179501 -981.935
-25.956499 19.9634 -981.30603
-25.2558 19.6287 -980.578
-24.468901 19.097099 -977.92102
-23.7208 19.0732 -976.409
-23.242599 18.7376 -975.914
-21.875601 18.2491 -973.39398
-21.494101 18.0835 -972.854
-19.221901 17.3183 -970.01501
-18.472799 17.0623 -969.25
-16.5229 16.447701 -967.35602
-15.4705 16.137899 -966.245
-12.0803 15.3522 -963.79999
-18.8479 23.5327 -1023.33
-19.8965 23.5445 -1021.92
-20.596399 23.5945 -1020.73
-21.194099 23.6105 -1019.56
-21.992901 23.6248 -1018.41
-22.8582 23.5205 -1017.15
-23.8792 23.715401 -1015.31
-24.119101 23.6401 -1014.4
-24.506001 23.6255 -1013.5
-24.9354 23.6115 -1012.58
-24.9603 23.5201 -1011.79
-25.4849 23.5502 -1010.89
-25.8169 23.5326 -1010.03
-26.6388 23.4245 -1007.6
-27.0634 23.424999 -1006.78
-27.194 23.464399 -1004.68
-27.3015 23.155701 -1003.98
-27.764601 23.2139 -1003.21
-27.7292 23.120501 -1002.45
-28.1793 23.1422 -1001.65
-28.0128 23.015699 -1000.98
-28.125401 22.9125 -1000.08
-28.1583 22.867001 -999.60999
-28.1082 23.070299 -998.95599
-27.989799 22.683201 -998.36401
-28.511801 22.7428 -997.612
-28.513201 22.5816 -996.79102
-28.370399 22.549 -996.409
-28.3547 22.483 -995.78699
-28.455799 22.4723 -994.51202
-28.1271 22.1868 -994.03601
-28.145901 22.234301 -993.38
-28.242599 22.188801 -992.77802
-28.177099 22.228399 -992.22699
-27.864201 21.9835 -991.70898
-28.2185 21.9224 -990.39203
-28.161301 22.018101 -989.95001
-27.7742 21.6479 -989.315
-27.888201 21.604401 -988.78699
-27.6682 21.365499 -988.23901
-27.413401 21.287701 -986.53497
-27.3314 21.121799 -985.74402
-26.9081 20.947399 -984.41302
-26.7896 20.9543 -983.84601
-26.7038 20.7456 -983.20801
-26.491501 20.6751 -982.34601
-26.1854 20.779499 -981.84302
-25.990999 20.541901 -981.18298
-25.758699 20.273199 -980.54797
-25.5135 20.0256 -979.87598
-25.0846 20.0089 -978.466
-24.5336 19.7197 -977.78198
-24.1122 19.402201 -977.12097
-23.0888 19.264299 -975.81
-23.094601 19.0135 -974.84399
-22.2838 19.120501 -974.07599
-22.013 18.8225 -973.29401
-20.934601 18.308701 -972.60901
-20.3557 18.2526 -971.52502
-20.2834 18.1768 -970.80603
-14.0101 16.2883 -964.966
-16.9475 23.9897 -1025.2
-18.4813 24.0854 -1023.48
-19.1432 24.023899 -1022.16
-20.025801 24.0737 -1020.89
-20.849701 24.0716 -1019.68
-21.494101 24.174 -1018.8
-22.6898 24.1388 -1016.43
-23.2176 24.127001 -1015.43
-23.858 24.162001 -1014.46
-24.3181 24.059099 -1013.62
-24.6133 24.1234 -1012.67
-24.961201 24.0811 -1011.77
-25.207899 24.042999 -1010.94
-25.9776 23.821301 -1009.25
-26.438601 24.0173 -1008.36
-26.455999 23.857 -1006.86
-26.6136 23.834499 -1006.11
-27.4715 23.8859 -1004.49
-27.3876 23.7325 -1003.76
-27.916901 23.7787 -1002.92
-27.726299 23.634199 -1002.29
-28.0406 23.493601 -1000.21
-28.3407 23.461399 -999.51202
-28.3265 23.369699 -997.711
-28.0797 23.153099 -997.02197
-28.4174 23.1798 -996.31799
-28.3715 23.031 -995.05902
-28.3109 22.8468 -993.82001
-28.119301 22.6971 -993.22198
-27.976999 22.518299 -992.05298
-28.100599 22.478201 -991.44202
-28.158199 22.455799 -990.85303
-28.1015 22.3454 -989.68402
-28.087999 22.398899 -989.27002
-27.910601 22.1994 -988.70801
-27.757799 21.9475 -988.146
-27.5681 22.263201 -987.44501
-27.599701 22.085199 -986.84497
-27.284901 21.6509 -985.65601
-26.9009 21.566099 -984.828
-26.836901 21.521 -983.73199
