# .PCD v0.7 - Point Cloud Data file format
VERSION 0.7
FIELDS x y z
SIZE 4 4 4
TYPE F F F
COUNT 1 1 1
WIDTH 1656
HEIGHT 1
VIEWPOINT 0 0 0 1 0 0 0
POINTS 1656
DATA ascii
-10.6604 -33.794498 -1050.95
-10.9584 -33.9473 -1050.6
-14.3428 -33.2799 -1048.6801
-15.7009 -32.974499 -1048.01
-24.2164 -31.934099 -1041.39
-24.883101 -31.7686 -1040.8101
-26.8043 -32.089901 -1038.39
-27.7792 -31.874901 -1037.16
-27.916201 -32.117199 -1036.51
-28.572399 -31.813299 -1036.27
-30.934299 -32.197498 -1032.6801
-32.777401 -32.409801 -1029.74
-33.741299 -32.742298 -1027.98
-34.491901 -32.410301 -1027.2
-34.738499 -32.941799 -1026.15
-35.421398 -33.458801 -1024.26
-37.411098 -35.2169 -1016.55
6.6198101 -38.549198 -1056.14
5.2879601 -37.551701 -1056.11
4.2622099 -37.480999 -1055.97
3.3164101 -37.320702 -1055.3199
0.229187 -36.436699 -1054.3
-0.95288098 -36.017399 -1054.0699
-2.2388301 -35.381699 -1054.01
-3.5023201 -35.049999 -1053.8101
-4.4077101 -34.993301 -1053.24
-5.4306002 -34.653301 -1052.99
-6.3256202 -34.362801 -1052.76
-7.0131798 -34.2962 -1052.3101
-8.10077 -33.717602 -1051.91
-8.7477398 -33.605598 -1051.85
-9.5629301 -33.813801 -1051.25
-10.5211 -33.227798 -1050.83
-11.028 -33.268299 -1050.63
-12.5724 -32.711601 -1049.95
-14.6492 -32.418098 -1048.8101
-15.536 -32.394699 -1048.42
-16.6105 -32.0658 -1047.66
-19.3687 -31.632799 -1045.72
-26.1266 -31.1014 -1039.46
-26.880699 -31.112101 -1038.59
-27.903299 -31.1952 -1037.1899
-28.4935 -31.301901 -1036.24
-29.5299 -31.2953 -1034.96
-33.132301 -31.676201 -1029.6801
-33.846298 -32.017502 -1027.9399
-34.270302 -31.968201 -1027.02
-35.715801 -32.525299 -1024.67
-36.312599 -33.124901 -1022.45
-36.243301 -33.547699 -1020.82
10.2052 -39.1367 -1056.42
8.4285898 -38.317402 -1056.4
6.8877001 -37.793999 -1056.29
6.0661001 -37.3316 -1055.6801
5.2778902 -37.457298 -1055.25
3.6765101 -36.682201 -1054.87
1.3498501 -36.0774 -1054.5601
0.109314 -35.7295 -1054.27
-2.2801499 -35.027802 -1053.72
-3.57568 -34.4715 -1053.65
-6.69348 -33.605099 -1052.53
-8.1274405 -33.022999 -1051.92
-8.7835102 -33.194401 -1051.54
-9.5557299 -33.159901 -1051.25
-10.5463 -32.531101 -1050.96
-11.2904 -32.539398 -1050.53
-15.348 -31.679001 -1048.37
-16.889 -31.387199 -1047.54
-17.383301 -31.186899 -1047.27
-17.8622 -31.1922 -1046.8101
-20.674299 -31.033501 -1044.2
-22.1513 -30.875 -1042.99
-22.778999 -30.843201 -1042.6
-26.8237 -30.5746 -1038.38
-27.4902 -30.6626 -1037.41
-28.3346 -30.630199 -1036.0601
-31.586901 -31.1145 -1031.45
-34.032001 -31.2799 -1028.04
-34.473 -31.0819 -1027.3101
-34.782501 -31.727699 -1025.97
-35.971901 -31.8402 -1023.59
-37.2915 -33.421101 -1018.11
-37.534698 -33.5938 -1017.02
8.9941397 -37.967701 -1056.04
5.52039 -36.912601 -1055.0699
1.03424 -35.285599 -1054.6
-1.60278 -34.2729 -1054.08
-2.4943199 -34.3894 -1053.61
-3.5369899 -33.949402 -1053.47
-4.7681899 -33.577702 -1053.23
-5.3958702 -33.5471 -1052.55
-6.55194 -33.053501 -1052.37
-7.1588702 -32.981201 -1052.3
-8.1027803 -32.4202 -1051.87
-10.2346 -32.052502 -1051.3
-10.7236 -32.016899 -1050.8
-11.3597 -31.8666 -1050.46
-11.9757 -31.418699 -1050.0699
-12.762 -31.5819 -1049.72
-18.960501 -30.4128 -1045.96
-19.4426 -30.408701 -1045.47
-20.3629 -30.3484 -1044.62
-21.482599 -30.0912 -1043.97
-25.361601 -30.153601 -1039.85
-25.763201 -29.9382 -1039.59
-26.2003 -29.875999 -1038.9399
-28.149 -30.117001 -1036.88
-28.4156 -29.867701 -1036.14
-28.773399 -30.178301 -1035.46
-30.1476 -30.193899 -1033.8101
-31.6469 -30.460899 -1031.39
-32.317699 -30.9825 -1029.26
-33.517799 -30.8309 -1028.17
-35.261299 -30.9478 -1025.72
-35.358299 -31.495899 -1024.3199
-35.727402 -32.130402 -1022.04
-37.090302 -33.2458 -1017.12
-37.9119 -35.074902 -1010.88
13.3029 -39.098499 -1055.92
8.1592398 -37.108799 -1055.72
7.09375 -36.863201 -1055.11
2.3084099 -35.085499 -1054.64
-1.66394 -33.7939 -1054.08
-2.56622 -33.6147 -1053.59
-3.4537399 -33.159901 -1053.25
-4.8513799 -32.886101 -1053.13
-5.9541602 -32.479599 -1052.95
-7.4804101 -32.155998 -1052.16
-9.4573402 -31.751801 -1051.42
-10.9108 -31.248699 -1050.91
-11.8899 -30.8391 -1049.98
-12.9254 -30.8174 -1049.73
-15.924 -30.403099 -1047.67
-18.868299 -29.938101 -1045.67
-19.510401 -29.7444 -1045.42
-19.944201 -29.737499 -1044.97
-22.2351 -29.4774 -1042.91
-23.222 -29.469299 -1042.02
-24.948 -29.1637 -1040.48
-25.445 -29.348 -1039.91
-27.4133 -29.419001 -1037.16
-28.1516 -29.457701 -1036.89
-28.635099 -29.711201 -1035.1801
-30.2868 -29.4718 -1033.8199
-31.655001 -29.8601 -1031.28
-32.1437 -29.9646 -1030.4
-33.608002 -29.695801 -1028.75
-34.2686 -30.7122 -1025.97
-35.702 -31.0285 -1023.29
-36.3843 -31.129499 -1022.06
-36.951199 -32.330799 -1018.11
11.6343 -37.9007 -1055.65
10.0342 -37.132999 -1055.77
9.0253897 -36.9925 -1055.21
0.82269299 -34.118698 -1054.28
-3.8461299 -32.6133 -1053.35
-6.6949501 -31.7999 -1052.41
-9.0036602 -30.924299 -1051.79
-9.9152203 -30.8041 -1051.62
-10.6683 -30.892401 -1050.54
-11.467 -30.641399 -1050.27
-15.336 -29.9657 -1047.9399
-15.8873 -29.881701 -1047.51
-16.5585 -29.768 -1047.16
-25.1661 -28.7439 -1040.27
-26.1521 -28.5229 -1038.99
-26.4625 -28.9203 -1038.35
-29.236099 -28.9639 -1034.9399
-29.507401 -29.0175 -1034.48
-30.4128 -29.5944 -1032.97
-31.3067 -29.321301 -1031.62
-34.3139 -30.1105 -1025.9301
-35.157001 -30.187 -1025.41
-36.048599 -30.5994 -1022.26
13.8287 -38.112801 -1055.89
12.3476 -37.720402 -1055.26
8.3776197 -36.245098 -1055.1899
5.3905001 -35.272202 -1054.8
1.61945 -34.009701 -1054.5601
-0.65264899 -33.0951 -1054.01
-1.92572 -32.508099 -1053.97
-2.8926401 -32.571098 -1053.3101
-4.0517001 -31.7486 -1053.14
-5.8407602 -31.537901 -1052.5
-6.9525099 -31.0392 -1052.14
-8.2910204 -30.831499 -1051.98
-9.3709097 -30.3528 -1051.92
-10.675 -30.344299 -1050.45
-11.3126 -30.2271 -1050.09
-11.7883 -30.2857 -1049.85
-19.496901 -28.703501 -1045.14
-22.909401 -28.349001 -1042.33
-26.361099 -28.1593 -1038.9301
-27.5333 -28.383101 -1036.98
-27.965 -28.3293 -1036.64
-28.6021 -28.387501 -1035.74
-29.5748 -28.421801 -1034.45
-30.2542 -28.445601 -1033.59
-30.8004 -28.6805 -1032.34
-32.217701 -28.6215 -1030.91
-32.379002 -28.803699 -1030.26
-33.419899 -28.8134 -1029.04
-35.566502 -29.5338 -1024.38
-35.986599 -30.2428 -1021.99
-36.1357 -30.5791 -1020.86
-36.737202 -30.5037 -1020.28
-37.444901 -32.116402 -1015.33
-37.754299 -32.332401 -1013.88
3.2302899 -33.6745 -1054.61
1.68329 -33.187099 -1054.54
-2.7907701 -32.023499 -1053.1801
-4.0762901 -31.384399 -1053.24
-5.19946 -31.0142 -1053.04
-6.0499301 -31.0035 -1052.6
-10.7595 -29.6511 -1050.25
-12.1172 -29.552 -1049.61
-12.6077 -29.549601 -1049.01
-14.4825 -28.801201 -1048.85
-17.164101 -28.592501 -1046.5699
-19.1043 -28.211599 -1045.47
-22.9198 -27.986 -1041.89
-25.1511 -27.7036 -1040.08
-27.942499 -27.819901 -1036.52
-29.506901 -27.734699 -1034.22
-33.3694 -28.443001 -1028.78
-34.0425 -28.5847 -1027.4399
-34.479698 -29.132 -1026.1899
-34.803501 -29.076599 -1025.1
-36.8148 -31.431999 -1016.64
-37.5495 -31.3437 -1015.39
15.8597 -37.835899 -1055.22
10.9071 -36.419899 -1054.8
0.283508 -32.264999 -1054.13
-0.80896002 -31.861401 -1053.92
-1.7921799 -31.3873 -1053.45
-6.4318199 -30.3211 -1052.4399
-7.7571402 -29.748699 -1052.28
-8.5525503 -29.459101 -1052.0699
-11.5671 -29.021 -1049.98
-12.2167 -28.9093 -1049.58
-16.6938 -28.028299 -1046.9399
-24.243 -27.2346 -1040.78
-26.3067 -27.013399 -1038.79
-27.062201 -27.0849 -1037.97
-27.946501 -27.267099 -1036.42
-28.1157 -27.474199 -1035.78
-29.6537 -27.6604 -1033.51
-30.306 -27.7008 -1032.59
-31.6751 -27.830799 -1031.33
-31.9373 -27.5907 -1031.0699
-32.5186 -27.686899 -1030.21
-33.152302 -27.8615 -1029.72
-33.205399 -27.879499 -1028.6
-33.7062 -28.1938 -1027.9399
-34.0765 -27.981199 -1027.42
-34.809601 -28.3493 -1025.21
-35.183498 -28.807301 -1024.34
-36.016499 -28.938801 -1022.51
-36.3853 -29.033899 -1021.67
-37.4174 -30.706699 -1015.78
-37.782799 -30.9638 -1013.94
-37.985199 -31.7033 -1012.18
10.3121 -35.264301 -1054.66
8.1167002 -34.507099 -1054.92
-1.79749 -30.717699 -1053.4301
-2.9384799 -30.709101 -1053.0699
-3.85181 -30.59 -1052.9399
-7.0441899 -29.486099 -1052.6
-7.4161401 -29.055799 -1052.22
-9.6463003 -28.6597 -1051.21
-11.7283 -28.297899 -1050.01
-12.9116 -28.216 -1049.09
-14.9468 -27.7505 -1048.04
-17.278601 -27.380699 -1046.46
-19.059999 -27.1667 -1045.16
-19.9816 -27.070299 -1044.38
-22.923401 -26.7068 -1042.03
-24.5777 -26.947901 -1039.95
-25.6509 -26.618 -1039.17
-26.8554 -26.703501 -1037.63
-27.9314 -26.7348 -1036.28
-28.160299 -26.8477 -1035.73
-28.620501 -26.5933 -1035.37
-28.9818 -26.888901 -1034.72
-29.5368 -26.8608 -1034.09
-30.620399 -26.773701 -1032.3
-31.491699 -27.1129 -1031.23
-33.1343 -27.180099 -1029.7
-33.361198 -27.1984 -1028.79
-34.788799 -27.8456 -1025.3
-35.201302 -28.127199 -1024.4301
-36.567101 -28.9543 -1019.68
-36.9412 -30.1273 -1016.59
7.3884902 -33.436798 -1055.02
6.0918598 -32.938599 -1054.62
-1.7937599 -30.0973 -1053.37
-4.8085299 -29.5077 -1052.76
-6.0377798 -28.9494 -1052.89
-7.2108202 -28.5935 -1052.5601
-7.9626498 -28.5688 -1051.89
-10.3956 -27.9596 -1050.72
-14.4243 -27.2516 -1047.92
-15.4472 -27.173201 -1047.46
-22.389299 -26.017799 -1042.1899
-25.145 -26.2623 -1039.12
-28.495199 -26.3148 -1035.2
-28.6975 -26.4625 -1034.64
-31.974701 -26.761499 -1030.78
-33.204498 -26.566799 -1028.55
-34.0303 -26.791401 -1026.95
-34.491001 -27.195101 -1026.1801
-34.953201 -27.4063 -1024.71
-35.700199 -28.775499 -1020.32
-36.7397 -29.6367 -1016.25
-37.327999 -29.8034 -1015.07
-37.743801 -29.839399 -1013.44
6.8836098 -32.799 -1055.1
2.15851 -30.854 -1054.46
1.62366 -30.9844 -1053.8199
-1.20813 -29.8545 -1053.78
-2.2312601 -29.572001 -1053.41
-4.0967999 -29.0772 -1053.09
-5.45117 -28.485399 -1053.09
-6.1491699 -28.4095 -1052.59
-7.2318702 -28.202499 -1051.76
-10.802 -27.468 -1049.97
-12.8661 -27.1024 -1048.71
-15.0086 -26.5602 -1047.86
-15.597 -26.471001 -1047.46
-27.1036 -25.663401 -1036.8199
-28.065901 -25.733299 -1035.85
-31.471201 -25.726299 -1031.74
-31.9527 -26.0809 -1030.78
-32.414398 -26.0285 -1029.75
-33.379902 -26.035999 -1028.6
-33.793598 -26.506599 -1026.85
-34.632801 -26.7927 -1025.05
-36.599998 -28.755501 -1017.87
8.6538095 -32.547901 -1054.98
6.9928598 -32.163502 -1054.6
3.9646599 -31.083599 -1054.38
1.41925 -30.270399 -1053.75
0.00598145 -29.6535 -1053.84
-1.24902 -29.5634 -1053.4301
-4.5932002 -28.129801 -1053.28
-6.5896602 -27.7598 -1052.02
-8.7709398 -27.122999 -1050.9399
-10.2685 -27.1891 -1050.35
-10.8621 -26.880699 -1049.8199
-12.9546 -26.4643 -1048.6801
-17.8006 -25.234699 -1045.83
-20.784201 -25.1115 -1043.11
-21.8859 -25.1828 -1042.35
-23.0201 -24.9149 -1041.77
-24.058201 -25.0546 -1040.25
-28.7836 -24.8701 -1035.3
-29.0909 -25.2232 -1034.0601
-31.552799 -25.105 -1031.4301
-32.0504 -25.2087 -1030.73
-32.798698 -25.3582 -1029.37
-35.210899 -26.7952 -1022.58
-37.036701 -28.064699 -1016.6
-37.7892 -30.4582 -1009.26
11.2181 -33.025501 -1054.77
6.5159898 -31.193199 -1054.78
5.0949702 -30.694201 -1054.7
1.09656 -29.395399 -1053.92
-0.398743 -28.900299 -1053.8
-1.2074 -28.684999 -1053.41
-3.2925401 -28.0711 -1053.3
-4.9972501 -27.519199 -1052.63
-8.6688204 -26.6826 -1050.88
-13.4662 -25.790701 -1048.39
-14.2049 -26.089899 -1047.66
-16.2369 -25.0711 -1046.61
-18.084 -24.864201 -1045.33
-20.376499 -24.4529 -1044.11
-22.530199 -24.3895 -1041.96
-24.4119 -24.6493 -1039.71
-25.056999 -24.2675 -1039.45
-26.2015 -24.285601 -1038.17
-27.4991 -24.491699 -1036.1801
-28.7297 -24.451099 -1034.45
-29.2292 -24.665501 -1033.9399
-30.383699 -24.7817 -1032.09
-31.3067 -24.6541 -1031.46
-32.1171 -24.547199 -1030.74
-32.151699 -24.798 -1029.79
-33.237701 -24.9956 -1028.24
-33.1833 -25.303101 -1027.4301
-33.719398 -25.3391 -1026.65
-34.2761 -25.83 -1024.62
-35.8633 -26.430799 -1021.85
-36.979198 -27.382299 -1016.9
-36.997101 -28.049299 -1015.06
8.19666 -31.205 -1054.86
4.8615699 -29.8862 -1054.72
2.4245 -29.3267 -1053.75
0.93383801 -28.636 -1053.95
-0.113159 -28.4044 -1053.58
-5.5548701 -26.795099 -1052.09
-6.4236498 -26.5618 -1051.73
-6.9271202 -26.6306 -1051.1801
-7.9380498 -26.254 -1051.0699
-8.6332397 -25.9655 -1050.74
-11.8104 -25.3102 -1049.41
-12.2546 -25.388 -1048.76
-13.9335 -24.8531 -1048.3
-14.1028 -24.856199 -1047.5699
-17.661699 -24.1824 -1046.0601
-19.348801 -24.0513 -1044.67
-22.3729 -23.6506 -1042.38
-23.698 -23.5644 -1041.16
-24.189301 -23.800301 -1039.96
-24.842699 -23.561899 -1039.8199
-25.344999 -23.7883 -1038.71
-25.9701 -23.562799 -1037.76
-28.114901 -23.965099 -1035.14
-29.105 -24.0128 -1033.88
-30.9865 -24.245701 -1031.15
-31.8678 -23.8582 -1030.4
-33.745701 -24.632 -1026.7
-34.769299 -25.0145 -1024.39
-35.901001 -25.847601 -1020.81
-37.1124 -26.5707 -1016.85
-37.338402 -27.786501 -1013.54
3.5483999 -29.0259 -1054.2
0.77960199 -27.925301 -1053.8
-0.31195101 -27.6735 -1053.67
-2.69104 -26.989 -1053.12
-3.7325399 -26.999001 -1052.79
-7.3694501 -25.7813 -1051.34
-8.7032499 -25.5378 -1050.62
-11.0804 -24.8997 -1049.65
-11.8739 -24.6852 -1049.27
-13.3894 -24.4235 -1048.49
-14.621 -24.224199 -1047.73
-15.3304 -24.031601 -1047.45
-17.8925 -23.6106 -1045.96
-23.072599 -22.982401 -1041.99
-24.2607 -22.989901 -1040.62
-24.5208 -23.108801 -1040.02
-25.2792 -23.1222 -1039.15
-25.872 -22.9242 -1038.95
-27.166901 -22.976101 -1037.1899
-28.0368 -23.167601 -1035.74
-31.211201 -23.4249 -1031.36
-31.392 -23.6346 -1030.63
-32.1656 -23.785601 -1029.34
-33.131699 -24.480101 -1026.95
-35.910999 -24.9648 -1022.03
-35.917999 -25.1495 -1020.6
-36.186199 -25.599199 -1019.57
-36.5219 -25.9734 -1018.11
-37.168301 -26.7355 -1015.09
-37.7467 -28.5133 -1009.21
13.0688 -31.720699 -1054.73
6.1059599 -29.1313 -1054.58
2.15149 -28.100401 -1053.79
0.900635 -27.552799 -1053.74
0.021911601 -27.4662 -1053.15
-1.6303101 -26.8118 -1053.11
-2.85815 -26.336399 -1052.78
-4.7755699 -25.8883 -1052.1801
-5.6368999 -25.7628 -1051.99
-6.7065401 -25.7194 -1051.77
-7.4024 -25.263599 -1051.21
-8.7982197 -24.9151 -1050.61
-9.4354897 -24.9128 -1050.08
-11.3885 -24.1978 -1049.62
-13.4907 -23.721001 -1048.7
-14.2935 -23.705 -1047.99
-14.7451 -23.7297 -1047.54
-15.8356 -23.5224 -1047.2
-24.7656 -22.4321 -1040.05
-26.264 -22.4478 -1038.28
-28.740999 -22.653099 -1034.76
-31.739 -23.102699 -1030.13
-33.211102 -23.718201 -1026.75
-33.5877 -23.683001 -1026.4301
-34.0023 -24.008301 -1025.27
-34.065102 -24.0772 -1024.09
-34.98 -24.9489 -1022.35
-37.306999 -26.7458 -1013.34
7.69806 -29.4007 -1054.72
6.1977501 -28.768 -1054.45
4.4702802 -28.3547 -1054.29
1.9672199 -27.479601 -1053.91
0.689026 -26.856199 -1053.73
-5.1289701 -25.137199 -1052.13
-5.5910602 -25.1668 -1051.95
-6.9044199 -24.726601 -1051.64
-7.5426602 -24.6661 -1051.1899
-8.28473 -24.416 -1050.95
-10.4457 -24.144699 -1049.48
-12.546 -23.373899 -1049.25
-18.696501 -22.382401 -1045.38
-19.520599 -22.5392 -1044.7
-20.413 -22.183001 -1043.96
-21.737101 -22.018499 -1042.98
-23.587 -21.884701 -1041.28
-23.9867 -22.1544 -1040.7
-25.1689 -21.933901 -1039.5
-27.4501 -21.9037 -1037.01
-29.0562 -22.254499 -1034.17
-30.653 -22.616199 -1031.3101
-31.848101 -22.5387 -1030.0699
-32.736801 -22.8428 -1027.58
-32.7994 -23.5252 -1026.45
-35.430199 -24.1824 -1021.33
-36.052601 -24.4195 -1020.75
-36.9907 -25.2033 -1016.55
-37.131199 -25.5186 -1015.48
-37.340599 -25.967699 -1013.9
7.3657799 -28.475401 -1054.8199
3.12854 -27.075899 -1053.88
-2.7569001 -25.152 -1053.39
-3.44995 -25.093399 -1052.89
-4.2531099 -24.8365 -1052.5601
-5.1593599 -24.487301 -1052.1
-6.0096998 -24.603399 -1051.61
-6.7708702 -24.284401 -1051.42
-8.0882597 -24.056601 -1050.67
-9.9573402 -23.628 -1049.97
-11.9495 -22.9765 -1049.4
-12.4702 -22.962999 -1048.99
-13.1676 -22.799601 -1048.66
-13.9337 -22.622801 -1048.36
-14.4496 -22.625299 -1047.8
-15.1251 -22.442499 -1047.55
-20.848801 -21.520599 -1043.76
-21.681101 -21.408501 -1042.67
-22.1716 -21.467699 -1042.4399
-23.417101 -21.5158 -1041.05
-26.3034 -21.3932 -1038.1
-26.716499 -21.416 -1037.98
-27.405001 -21.4601 -1036.6801
-27.6555 -21.8943 -1035.87
-28.253401 -21.479099 -1035.42
-30.4487 -21.6924 -1032.35
-31.3965 -22.1353 -1030.28
-32.798801 -22.456301 -1027.66
-32.738602 -22.818701 -1026.79
-33.577099 -22.9361 -1026.04
-33.9543 -22.6696 -1025.22
-34.201199 -23.159901 -1024.14
-36.5219 -24.187401 -1018.44
-37.0616 -25.0483 -1015.33
-37.2957 -25.4655 -1013.76
7.7800899 -28.316 -1054.49
6.0798302 -27.425699 -1054.3101
2.8432 -26.478201 -1053.92
-0.112183 -25.8685 -1053.59
-4.38623 -24.1668 -1051.89
-6.85712 -23.534 -1051.08
-7.5432701 -23.4242 -1051.09
-9.14746 -23.1404 -1050.3
-9.8914804 -23.024401 -1049.89
-10.7782 -22.6094 -1049.42
-11.7751 -22.4837 -1049.33
-12.4697 -22.387501 -1048.92
-22.576799 -20.933901 -1041.87
-23.4594 -20.879101 -1041.03
-27.475599 -20.7917 -1036.83
-28.0856 -20.8563 -1035.9399
-28.3904 -20.8654 -1035.48
-29.3554 -21.291401 -1033.37
-29.8629 -21.213499 -1033.02
-32.069599 -21.411501 -1029.89
-33.8531 -22.357401 -1025.09
-34.258999 -22.5492 -1024.1
-34.8717 -22.7896 -1022.65
-35.484402 -23.055201 -1021.25
-35.813599 -23.3291 -1020.57
-35.9953 -23.3568 -1019.41
-36.879398 -24.6451 -1015.03
-37.1917 -25.0014 -1013.57
13.3973 -29.7617 -1054.03
-0.40423599 -24.789499 -1053.49
-1.8067 -24.698299 -1052.87
-4.0752001 -23.7596 -1052.28
-6.0552402 -23.3687 -1051.6
-6.7276001 -23.110399 -1050.9
-7.6415401 -22.761 -1051.12
-9.0752602 -22.693701 -1050.1
-11.4823 -21.848499 -1049.4
-12.0749 -22.031 -1048.62
-12.8333 -21.8132 -1048.38
-13.8931 -21.450701 -1048.2
-14.4676 -21.458599 -1047.62
-15.5106 -21.3381 -1046.9301
-23.0135 -20.347 -1041.35
-24.947599 -20.4165 -1039.03
-25.923 -20.2418 -1038.39
-26.9363 -20.410999 -1036.95
-27.2262 -20.723801 -1035.73
-28.323999 -20.2363 -1035.33
-30.766701 -20.461201 -1032.33
-30.9678 -20.913 -1031
-31.407301 -20.7889 -1030.74
-31.7787 -20.999399 -1029.77
-33.4048 -21.7932 -1025.89
-33.7668 -21.601999 -1025.0699
-33.937801 -22.019199 -1024.36
-34.581799 -21.8575 -1023.35
-35.500599 -22.4505 -1021.17
-35.629902 -23.1089 -1019.28
-36.6717 -23.582001 -1016.59
-36.866901 -24.0994 -1014.94
4.0538902 -25.7346 -1053.83
0.69671601 -24.5993 -1053.5
-0.34075901 -24.1306 -1053.25
-5.0876498 -22.9438 -1051.8101
-5.7590299 -22.9529 -1051.22
-6.7936401 -22.4914 -1051.12
-8.1254902 -22.422001 -1050.08
-9.8584003 -21.905199 -1049.83
-10.5963 -21.7302 -1049.29
-12.5894 -21.3578 -1048.12
-14.1255 -21.099899 -1047.71
-16.988001 -20.332199 -1046.17
-17.4205 -20.400801 -1045.62
-22.671101 -20.314301 -1041.03
-23.9345 -19.6891 -1040.4301
-25.9648 -19.764601 -1037.9399
-26.658001 -19.650499 -1037.5
-31.714001 -20.2847 -1030.11
-33.8643 -21.194401 -1024.91
-33.908001 -21.4324 -1024.23
-34.5098 -21.426701 -1023.5
-34.848499 -21.650299 -1022.47
-35.159698 -21.9207 -1021.38
-35.7393 -22.132299 -1020.5
-35.6563 -22.394699 -1019.05
-36.3279 -22.708 -1018.31
-36.277699 -23.1264 -1016.7
-36.7789 -23.3379 -1015.36
-37.168201 -23.877701 -1013.28
-37.853901 -26.3277 -1005.36
5.0360699 -25.4119 -1054.0699
-2.2609301 -23.0198 -1052.72
-3.20612 -22.796101 -1052.36
-4.1156001 -22.6689 -1051.9301
-5.1320801 -22.304701 -1051.75
-5.67413 -22.3617 -1051.08
-6.6546602 -22.0334 -1050.84
-7.7866802 -21.886101 -1050.55
-8.3727398 -21.626699 -1050.17
-9.1206703 -21.4317 -1049.9
-9.8772602 -21.260099 -1049.78
-11.3903 -20.8643 -1048.95
-13.275 -20.6723 -1047.61
-15.1752 -20.335199 -1046.49
-16.1518 -20.067499 -1046.55
-21.6047 -19.246599 -1042.39
-24.634899 -19.1891 -1039.34
-25.3508 -19.4741 -1037.77
-25.9807 -19.2582 -1037.63
-28.065599 -19.3365 -1034.96
-29.418699 -19.3657 -1033.3199
-31.6506 -19.679399 -1030.04
-32.3433 -19.724199 -1029.14
-32.532299 -21.125999 -1026.2
-33.012901 -20.5439 -1025.98
-34.134602 -20.8752 -1024.16
-36.526901 -22.524401 -1016.25
9.9834604 -26.7262 -1054.55
7.8958702 -25.692499 -1054.42
3.2401099 -23.860201 -1053.87
1.65326 -23.4774 -1053.78
0.61456299 -23.5739 -1053.46
-0.37017801 -22.8234 -1053.4
-0.94335902 -22.972799 -1052.9301
-2.0123301 -22.616501 -1052.33
-3.3368499 -22.4205 -1052.1
-3.90643 -21.833401 -1051.96
-7.7014198 -21.118099 -1050.54
-8.7193604 -20.724199 -1050.42
-9.1054096 -20.8797 -1049.67
-9.8682899 -20.6532 -1049.4301
-12.845 -20.1294 -1047.51
-14.5285 -19.43 -1046.98
-17.1938 -19.3528 -1045.24
-20.490499 -18.9004 -1042.91
-21.1231 -18.711399 -1042.65
-21.8699 -18.788099 -1041.6899
-23.813101 -18.7257 -1040.3199
-24.083099 -18.705601 -1039.55
-25.7437 -18.775801 -1037.37
-27.1605 -18.5506 -1036.38
-27.5786 -19.034 -1035.4301
-28.823799 -18.993601 -1033.35
-29.2029 -18.8549 -1032.98
-31.483801 -19.195101 -1029.84
-33.228699 -20.1703 -1024.49
-33.744801 -20.3848 -1023.89
-34.513599 -19.9793 -1023.31
-34.913898 -20.3976 -1022.37
-36.385601 -21.8498 -1016.62
-37.2551 -22.1017 -1014.79
12.219 -26.6535 -1054.36
10.0891 -26.1395 -1054.4399
5.8526001 -24.205299 -1054.38
4.7232099 -24.0186 -1054.11
3.1013801 -23.5002 -1053.72
1.75409 -23.194 -1053.52
0.101196 -22.561399 -1052.92
-0.80188 -21.9911 -1052.59
-3.0864899 -21.6639 -1052.11
-3.90009 -21.4895 -1051.71
-4.9379301 -21.1847 -1051.5
-5.7429199 -21.128901 -1050.95
-6.6459999 -20.8088 -1050.62
-7.5107999 -20.6168 -1050.25
-8.5423603 -20.2554 -1050.14
-8.90137 -20.411699 -1049.42
-11.2347 -19.653299 -1048.83
-11.8958 -19.690001 -1048.1801
-15.8233 -18.9828 -1045.97
-18.6805 -18.584299 -1043.95
-20.1185 -18.1992 -1043.36
-21.461901 -18.178699 -1042.0601
-21.9011 -18.1611 -1041.66
-22.4767 -17.9699 -1041.5
-22.4006 -18.399 -1040.52
-26.254601 -18.072399 -1036.99
-27.373899 -18.097401 -1035.6801
-31.3405 -18.693899 -1029.64
-32.301899 -18.5471 -1028.9301
-32.9687 -18.460899 -1028.34
-33.761101 -19.7435 -1023.81
-34.426102 -19.704399 -1023.17
-34.898602 -19.828199 -1022.26
-36.266998 -20.7043 -1018.19
-36.5471 -20.816 -1017.34
-37.052898 -21.332899 -1014.81
-37.4161 -21.655199 -1014.14
-37.7229 -23.5798 -1008.8
11.8177 -25.9431 -1054.3
10.1115 -25.280899 -1054.3101
7.9796801 -24.5264 -1054.0699
5.9696002 -23.7334 -1054.2
4.6149302 -23.426701 -1053.72
3.36255 -22.8276 -1053.63
2.2383399 -22.6738 -1053.51
1.18188 -22.370899 -1052.96
-0.041320801 -21.8571 -1052.97
-1.09375 -21.6982 -1052.58
-3.7807 -20.775999 -1051.5601
-4.98102 -20.5341 -1051.4301
-5.6697998 -20.7906 -1050.9301
-7.5885601 -19.9692 -1050.3199
-8.3503399 -19.8414 -1049.87
-9.8029804 -19.572001 -1049.2
-10.5339 -19.4443 -1048.83
-13.486 -18.716499 -1047.52
-13.7883 -19.016199 -1046.95
-15.2196 -18.6656 -1046.0601
-17.994699 -18.1938 -1044.22
-19.2365 -18.0065 -1043.9
-20.4429 -17.751801 -1042.73
-23.7747 -17.6394 -1039.3101
-24.534401 -17.6499 -1038.4399
-24.9221 -17.7488 -1038.3101
-27.501499 -17.7929 -1034.88
-27.944 -17.7243 -1034.55
-28.2227 -17.7868 -1034.0601
-29.483299 -17.910999 -1032.3101
-29.996599 -17.695999 -1031.63
-31.0865 -18.114 -1029.6
-32.689602 -18.1224 -1028.03
-33.148998 -18.2617 -1027.11
-33.315899 -18.659 -1025.84
-33.809299 -18.9685 -1024.37
-34.7481 -19.293501 -1022.22
-35.270901 -20.009001 -1019.8
12.3212 -25.5201 -1054.25
8.1076002 -24.145399 -1054.05
6.30023 -23.1759 -1054.03
4.4038701 -22.6873 -1053.8101
3.2476799 -22.422701 -1053.51
-0.040527299 -21.314699 -1052.83
-3.70386 -20.488899 -1051.46
-4.7023301 -20.1978 -1051.15
-5.6838398 -19.9956 -1050.77
-7.2523799 -19.664101 -1050.04
-12.597 -18.5137 -1047.58
-13.244 -18.391001 -1047.22
-15.6678 -18.207399 -1045.73
-21.624201 -17.1765 -1041.38
-26.415501 -17.2166 -1036.13
-27.565599 -17.166401 -1034.92
-28.580099 -17.2519 -1033.59
-29.518101 -17.357901 -1032.26
-30.1548 -17.5944 -1030.76
-31.1029 -17.7773 -1029.3101
-31.9951 -17.696699 -1028.54
-32.555 -17.6889 -1027.88
-33.5406 -18.176701 -1025.3
-33.696701 -18.5369 -1023.87
-34.559799 -18.8008 -1022.04
-35.298199 -19.433599 -1019.76
-35.8685 -19.628401 -1018
-37.495602 -20.235001 -1015.47
-37.451199 -21.659599 -1010.71
2.21436 -21.5096 -1053.21
1.1978101 -21.458401 -1053.09
0.107727 -20.978901 -1052.55
-0.91394001 -20.754 -1052.2
-1.73737 -20.516399 -1051.9399
-4.6093102 -19.6504 -1050.98
-5.5967999 -19.549601 -1050.8
-8.4312096 -18.6695 -1049.9
-11.3969 -18.1556 -1048.17
-15.6805 -17.4212 -1045.6801
-17.0054 -17.1422 -1045
-19.0588 -16.9571 -1043.3
-22.908899 -16.639 -1039.71
-23.3463 -16.5984 -1039.63
-24.865299 -16.666 -1037.8199
-26.798599 -16.677999 -1035.64
-27.261101 -16.7743 -1034.98
-28.011499 -16.5578 -1034.5699
-28.608 -16.722 -1033.5601
-29.139601 -16.8589 -1032.5601
-31.4879 -17.180401 -1028.98
-31.883499 -17.301201 -1028.37
-33.544399 -18.3585 -1023.35
-35.102901 -18.688499 -1019.87
-36.110199 -19.2579 -1017.77
-37.2225 -19.5854 -1015.55
10.9503 -23.827299 -1053.55
4.5750699 -21.758699 -1053.55
3.4244399 -21.740601 -1053.4301
2.65149 -21.2773 -1052.78
1.4115 -20.472099 -1052.71
-0.136902 -20.2745 -1052.46
-0.87738001 -20.234301 -1052.05
-1.72668 -19.961 -1051.8101
-2.5734301 -19.7458 -1051.52
-3.6489301 -19.6607 -1051.26
-5.5163598 -19.006001 -1050.6801
-10.4989 -17.8671 -1048.48
-13.6078 -17.4879 -1046.55
-17.9196 -16.3988 -1043.89
-21.262899 -16.3922 -1040.9301
-21.843399 -16.2563 -1040.66
-23.671 -16.1443 -1038.97
-26.716299 -16.220301 -1035.47
-27.976299 -16.378901 -1033.64
-32.890598 -16.8421 -1026.91
-33.1273 -17.3479 -1025.99
-34.285 -17.6982 -1022.72
-34.700298 -18.154699 -1021.02
-35.626301 -18.314501 -1019.37
-36.055 -18.4832 -1018.42
-36.744099 -19.148001 -1016.47
13.2589 -24.3015 -1053.61
5.0884399 -21.448 -1053.1801
-0.0069580101 -19.771099 -1052.29
-1.0992399 -19.6252 -1052.11
-2.7124 -19.0576 -1051.51
-5.6433702 -18.3452 -1050.48
-7.3842201 -17.8409 -1050.01
-8.03339 -17.8057 -1049.52
-11.8435 -17.103201 -1047.78
-14.5428 -16.497801 -1046.23
-16.667601 -16.327101 -1044.5
-17.396299 -16.076401 -1044.33
-17.9265 -16.0044 -1043.91
-18.975201 -15.9404 -1043.02
-19.589199 -15.81 -1042.73
-19.935699 -15.8558 -1042.23
-20.5329 -15.665 -1041.95
-21.0121 -15.6434 -1041.51
-24.8188 -15.5798 -1037.62
-25.877899 -15.7183 -1036.17
-28.9977 -15.8287 -1032.33
-29.271099 -15.8412 -1031.84
-32.035999 -16.0135 -1028.4301
-33.541599 -17.2495 -1023.22
-34.228699 -17.1866 -1022.57
-34.247299 -17.4228 -1021.88
-35.132401 -17.6989 -1020.05
-35.568501 -17.813101 -1019.22
-36.875301 -18.123301 -1016.85
-37.369499 -18.2691 -1015.6
-36.718899 -20.1548 -1011.75
7.15833 -21.517401 -1053.3
2.50806 -19.952499 -1052.77
0.0750122 -19.306499 -1052.16
-1.01898 -18.932501 -1052.04
-1.54541 -18.9291 -1051.48
-2.52527 -18.610201 -1051.26
-3.4913299 -18.4168 -1050.91
-5.0809302 -17.845501 -1050.6899
-5.47229 -17.929399 -1050.1899
-6.9751 -17.5961 -1049.52
-13.8632 -16.0676 -1046.4301
-16.7243 -15.6634 -1044.55
-17.2684 -15.6075 -1044.08
-20.129 -15.1929 -1041.92
-21.380301 -15.0004 -1040.75
-25.963301 -15.0732 -1036.2
-26.3867 -15.0241 -1035.8101
-27.011 -15.1378 -1034.8101
-28.058701 -15.1788 -1033.54
-28.4702 -15.1279 -1033.1801
-30.4855 -15.5523 -1029.87
-30.9245 -15.7526 -1029.3199
-31.8916 -15.5447 -1028.26
-32.264 -16.0273 -1026.54
-32.8643 -16.0735 -1025.7
-33.6376 -16.5966 -1023.27
-34.1731 -16.6448 -1022.43
-35.2327 -17.0329 -1020.09
-35.5938 -17.2314 -1019.1
-36.392601 -17.5082 -1017.58
-37.185699 -19.6548 -1010.22
-37.244099 -20.412399 -1007.99
10.562 -21.922501 -1053.34
6.72717 -20.5688 -1053.1801
5.4514799 -20.413601 -1052.9
2.7257099 -19.5172 -1052.49
1.45093 -19.2258 -1052.14
-0.092285201 -18.5998 -1052.22
-3.73627 -17.630899 -1051.04
-5.65973 -17.189301 -1050.24
-6.9320698 -17.022301 -1049.4
-7.70508 -16.8874 -1049.02
-9.6092501 -16.356001 -1048.41
-10.4655 -16.1359 -1048.14
-11.2275 -15.9385 -1047.8101
-11.5898 -16.064501 -1047.2
-13.2333 -15.5786 -1046.73
-15.0043 -15.3447 -1045.53
-15.6545 -15.1917 -1045.49
-16.291599 -15.0099 -1044.9399
-17.636999 -15.1212 -1043.38
-21.4161 -14.573 -1040.8101
-21.8918 -14.5219 -1040.42
-24.015499 -14.4981 -1038.1801
-25.5474 -14.464 -1036.5601
-26.8297 -14.3717 -1035.39
-28.4067 -14.6051 -1033.05
-29.9263 -14.8052 -1030.76
-30.526199 -14.9373 -1029.8199
-30.755301 -15.0024 -1029.33
-31.7649 -15.0585 -1028.02
-33.713699 -15.9148 -1023.27
-35.261902 -16.4412 -1019.98
-36.148602 -16.5975 -1018.62
-36.8069 -16.880501 -1017.08
-36.9482 -18.383801 -1012.37
-37.212101 -19.0275 -1010
-37.0532 -20.9832 -1004.66
10.5769 -21.3085 -1053.26
6.5078101 -19.922501 -1053.3199
3.6113901 -18.9202 -1052.74
1.07788 -18.335699 -1052.3199
-0.68322802 -17.967899 -1051.53
-1.95612 -17.5245 -1051.25
-2.5637801 -17.4582 -1051.02
-3.32147 -17.349199 -1050.52
-5.6686401 -16.5581 -1050.15
-7.1862798 -16.1884 -1049.5699
-7.7251601 -15.9518 -1048.9301
-8.4068003 -15.788 -1048.96
-9.5930204 -15.7533 -1048.4
-10.5738 -15.4276 -1048.1801
-11.1124 -15.4372 -1047.66
-19.943001 -14.132 -1041.72
-20.5091 -14.018 -1041.5699
-20.7519 -14.1673 -1040.9399
-21.613899 -14.1555 -1040.08
-24.8235 -13.8461 -1037.35
-25.7817 -14.0219 -1035.89
-28.2103 -14.1731 -1032.76
-28.489799 -14.2421 -1032.29
-29.9575 -14.2372 -1030.71
-32.051102 -14.9864 -1026.22
-33.019798 -15.3213 -1024.08
-36.4781 -16.0429 -1018.08
-36.673302 -18.2813 -1011.57
8.6080303 -20.3195 -1052.84
6.2951698 -19.2924 -1052.99
4.6648598 -19.035101 -1052.89
2.29742 -18.0863 -1052.42
1.16956 -17.6371 -1052.11
-0.76611298 -17.6383 -1051.48
-1.61816 -17.0347 -1051.24
-2.5427201 -16.8328 -1050.88
-5.6993999 -15.7957 -1049.85
-6.9132099 -15.8354 -1049.21
-8.5009804 -15.4578 -1048.54
-9.6107798 -15.0575 -1048.51
-10.0838 -14.9073 -1047.8101
-11.8067 -14.7203 -1047.1801
-12.9501 -14.6281 -1046.3199
-13.2689 -14.714 -1045.99
-17.111601 -13.5446 -1043.62
-18.0135 -13.7727 -1042.92
-19.7687 -13.6612 -1041.65
-21.625099 -13.5107 -1040.01
-22.5856 -13.4449 -1039.21
-24.6495 -13.3929 -1037.05
-26.8417 -13.4978 -1034.41
-27.695601 -13.4263 -1033.67
-28.3228 -13.4861 -1032.8
-30.4956 -13.5834 -1029.79
-30.885099 -13.9466 -1029.09
-32.920601 -14.5978 -1024.39
-33.4604 -15.1151 -1023.33
-33.980301 -14.7666 -1022.64
-35.254799 -14.9903 -1020.75
-36.050201 -15.3315 -1018.84
-37.259701 -18.405001 -1007.8
10.1064 -20.023701 -1053.13
8.4562998 -19.5592 -1052.88
6.2836299 -18.7313 -1053.02
4.8269 -18.1544 -1052.9
2.5335701 -17.6945 -1052.0601
1.36432 -17.353901 -1051.8101
0.113464 -16.931999 -1051.75
-0.55395502 -16.7778 -1051.3199
-1.89697 -16.4228 -1051.1
-2.1910999 -16.4865 -1050.49
-3.38165 -15.8328 -1050.59
-6.0421801 -15.4571 -1049.3101
-7.8576002 -14.9056 -1048.91
-9.1863403 -14.7218 -1048.02
-9.9901695 -14.3933 -1047.5699
-11.0072 -14.3421 -1047.35
-11.7504 -14.1125 -1047.0601
-16.627701 -13.3422 -1044.01
-17.8778 -13.0701 -1043.4
-18.0403 -13.3322 -1042.62
-19.242701 -13.1465 -1041.9
-20.7005 -12.8586 -1040.64
-25.8701 -13.0118 -1035.0601
-27.4454 -13.0004 -1033.9301
-27.7444 -12.7855 -1033.63
-28.1777 -12.9534 -1032.62
-28.535299 -13.1961 -1031.5601
-29.582001 -13.1467 -1030.75
-30.094801 -13.3687 -1029.3
-30.314699 -13.9453 -1028.3
-32.373001 -13.8533 -1025.78
-32.578602 -14.0198 -1024.66
-32.892799 -14.3084 -1023.51
-33.680698 -13.9142 -1023.57
-35.171398 -14.2362 -1021.24
-36.4911 -15.2729 -1016.68
-37.045502 -18.156401 -1007.51
16.1884 -21.529699 -1052.65
4.8977098 -17.5557 -1052.46
3.51843 -17.2934 -1052.51
2.1492901 -17.110399 -1052.29
0.24096701 -16.4429 -1051.52
-0.67614698 -16.115999 -1051.39
-2.31073 -15.8277 -1050.51
-3.4693 -15.4289 -1050.41
-4.74438 -15.2782 -1049.99
-9.3179903 -14.0847 -1048.29
-9.9711304 -13.997 -1047.66
-10.467 -13.8079 -1047.3
-16.086399 -12.8709 -1044.09
-20.272499 -12.4113 -1041.1
-21.9629 -12.092 -1039.34
-22.623199 -12.2646 -1039.0601
-25.0515 -12.4403 -1035.87
-25.739599 -12.1626 -1035.8199
-26.6882 -12.4792 -1034.14
-27.2903 -12.2896 -1033.9399
-28.218599 -12.3421 -1032.53
-31.4333 -13.1386 -1027.24
-31.9109 -13.0591 -1026.59
-32.587399 -13.503 -1024.5601
-34.148102 -13.4402 -1023
-34.488701 -13.4479 -1022.6
-34.579201 -13.6507 -1021.95
-35.212502 -13.6515 -1021.19
-35.482601 -13.9683 -1020.03
-36.426601 -14.2331 -1018.31
10.5254 -19.2556 -1052.65
3.7551301 -16.936899 -1052.15
2.3370399 -16.4118 -1052.04
1.33032 -16.228001 -1051.67
0.097228996 -15.8036 -1051.64
-2.47333 -15.5862 -1050.24
-3.34021 -14.978 -1050.1801
-5.4721098 -14.4449 -1049.53
-6.1323199 -14.3214 -1049.17
-6.9653301 -14.0782 -1048.98
-7.526 -14.3002 -1048.52
-8.22931 -13.9467 -1048.03
-12.5412 -13.0811 -1045.89
-15.4545 -12.4187 -1044.65
-18.724701 -12.1185 -1042.2
-22.475599 -11.855 -1038.86
-24.1203 -11.9014 -1036.77
-24.9443 -11.768 -1035.7
-27.2435 -11.9662 -1033.1899
-28.616501 -12.2166 -1031.7
-29.0359 -11.9006 -1031.28
-29.2855 -12.3568 -1030.21
-29.617901 -12.693 -1029.53
-30.8997 -12.4152 -1027.5699
-31.833599 -12.5921 -1026.46
-32.821899 -12.7664 -1024.53
-34.919601 -12.9593 -1022.13
-34.965099 -12.9875 -1020.92
-35.503101 -13.423 -1019.98
-36.7733 -15.6401 -1011.87
8.0476103 -18.007601 -1052.78
5.0071998 -17.0919 -1052.3
3.87848 -16.4862 -1051.9301
2.2674 -15.8516 -1052.03
1.39838 -15.7085 -1051.52
-1.92883 -15.033 -1050.24
-5.5585899 -13.872 -1049.52
-5.8750601 -13.7143 -1048.97
-6.89252 -13.5889 -1048.8199
-7.6028399 -13.4826 -1048.4301
-8.24261 -13.3765 -1047.98
-9.2281504 -13.0446 -1047.87
-9.8800697 -12.9759 -1047.4301
-10.6437 -12.7741 -1047.15
-19.942801 -11.2737 -1041.34
-21.257 -11.2787 -1040.17
-21.999599 -11.3643 -1039.1899
-22.5975 -11.244 -1038.95
-22.7255 -11.3642 -1038.16
-24.279301 -11.3085 -1036.6801
-24.491199 -11.5406 -1036.14
-25.828199 -11.5113 -1034.6899
-27.146 -11.6109 -1033.16
-28.354099 -11.6954 -1031.26
-29.4081 -11.7031 -1030.05
-30.3396 -11.7892 -1028.76
-31.357401 -12.073 -1026.95
-32.407001 -12.3678 -1024.8
-33.9142 -12.3515 -1023.21
-34.505402 -12.5677 -1022.86
-35.4874 -12.9046 -1019.93
-36.463402 -13.8592 -1015.93
8.43188 -17.340599 -1052.5
6.8185401 -16.8577 -1052.34
5.3382001 -16.3948 -1052.12
3.63574 -15.6945 -1052.16
2.4379301 -15.6185 -1051.78
1.71051 -15.4109 -1051.25
0.81646699 -14.8173 -1051.45
-0.158447 -14.916 -1050.98
-0.96887201 -14.7029 -1050.27
-2.3663299 -14.1064 -1050.42
-3.1761501 -14.1598 -1050.14
-4.3927598 -13.6864 -1049.5601
-6.8678598 -13.0632 -1048.7
-7.4523301 -13.1711 -1048.3101
-8.2190599 -12.8436 -1047.64
-12.5157 -12.0237 -1045.75
-13.1799 -12.0151 -1045.37
-16.055599 -11.5443 -1043.39
-19.879299 -11.1172 -1040.55
-20.6752 -10.8434 -1040.42
-21.9009 -10.9037 -1039.16
-22.972 -10.9377 -1037.6899
-24.2026 -10.8676 -1036.53
-24.781601 -11.0428 -1035.48
-27.802999 -11.0046 -1032.16
-28.266899 -11.4171 -1031.1899
-28.8193 -11.3835 -1030.11
-30.171801 -11.4018 -1028.52
-31.785 -11.5534 -1026.34
-32.045799 -11.5763 -1025.88
-35.062199 -12.1718 -1020.81
-35.427502 -12.4135 -1019.8
-35.6511 -12.712 -1018.72
-37.035301 -15.7927 -1007.82
10.8286 -17.466801 -1052.52
6.5886798 -16.1579 -1052.3
2.8108499 -14.9715 -1051.65
1.9690599 -14.8241 -1051.1801
0.018249501 -14.4591 -1050.73
-0.714661 -14.0276 -1050.13
-2.31458 -13.5757 -1050.2
-3.02649 -13.5932 -1049.63
-5.4860201 -12.9019 -1049.34
-7.3583398 -12.528 -1048.0601
-11.2787 -11.7931 -1046.39
-14.3821 -11.144 -1044.58
-14.9841 -11.0284 -1044.21
-21.4035 -10.3047 -1039.3101
-22.217501 -10.2439 -1038.6801
-23.7906 -10.3196 -1036.84
-24.1374 -10.3583 -1036.41
-26.2819 -10.6211 -1034.09
-27.042101 -10.4724 -1032.84
-27.962099 -10.6211 -1031.48
-28.2644 -10.6684 -1031.04
-28.6994 -10.5889 -1030.75
-29.6187 -11.007 -1028.59
-30.2307 -11.1788 -1027.79
-31.5665 -11.2443 -1026.09
-35.418701 -11.8176 -1019.72
-35.801601 -12.0755 -1018.89
-36.061401 -12.8797 -1015.99
-36.367599 -14.1189 -1011.07
13.4288 -18.144899 -1052.0601
8.7417002 -16.5282 -1052.33
6.8808599 -15.6981 -1052.0699
4.4752798 -14.9641 -1051.64
3.4484899 -14.6056 -1051.59
1.95056 -13.9048 -1051.1801
-0.57678199 -13.7343 -1050.65
-2.30493 -13.0405 -1050.11
-3.21118 -12.8319 -1049.76
-5.4461098 -12.2718 -1049.12
-7.3705401 -11.9538 -1047.96
-9.5072002 -11.571 -1046.84
-11.1489 -11.3354 -1046.2
-18.858801 -9.9749098 -1041.38
-23.0154 -9.9868498 -1037.17
-24.4478 -9.8417702 -1035.85
-25.7094 -9.9567003 -1034.37
-27.4573 -9.6700096 -1032.22
-28.508101 -10.1851 -1030.45
-29.355801 -10.0644 -1029.8199
-29.7966 -10.2054 -1028.42
-30.9554 -10.4662 -1026.88
-31.303801 -10.5081 -1026.4
-32.0966 -10.5154 -1025.59
-32.650299 -10.7365 -1024.36
-33.318401 -10.8295 -1023.96
-33.9548 -10.9554 -1022.33
-34.864799 -11.2193 -1020.47
-35.352798 -11.3257 -1019.58
-35.955299 -11.9377 -1017.11
-36.494202 -13.8861 -1010.71
6.09863 -14.8892 -1052.01
2.14856 -13.4953 -1050.88
1.0017101 -13.3126 -1050.83
0.177063 -13.397 -1050.4301
-0.741943 -12.8833 -1050.02
-3.0130601 -12.3717 -1049.48
-5.4260898 -11.6505 -1049.04
-6.6859698 -11.7325 -1048.02
-7.40137 -11.3223 -1047.9301
-8.1895103 -11.1857 -1047.4
-8.7943697 -11.112 -1047.34
-18.042 -9.6857004 -1041.4
-19.0219 -9.6031504 -1040.61
-20.4142 -9.4978304 -1039.37
-21.3347 -9.4589796 -1038.54
-21.7759 -9.4378099 -1038.1
-23.088301 -9.4122295 -1037.1801
-23.673401 -9.4541302 -1035.9399
-24.2267 -9.4140301 -1035.55
-25.1064 -9.3402395 -1034.79
-26.429501 -9.5285301 -1032.89
-27.728901 -9.65979 -1031.14
-28.150299 -9.7035799 -1030.89
-28.6227 -9.4950895 -1030.51
-29.128099 -9.5040302 -1029.8101
-31.638399 -9.7617798 -1026.51
-31.890301 -9.8747597 -1025.9399
-32.481098 -9.9859304 -1025.03
-33.248901 -10.1438 -1023.62
-33.443802 -10.1961 -1022.85
-33.936001 -10.391 -1022.21
-34.200901 -10.4441 -1021.22
-34.827599 -10.7015 -1020.54
-35.1866 -10.8884 -1019.35
-35.793098 -11.4807 -1016.85
-36.4786 -13.7264 -1009.38
13.9004 -17.2383 -1051.85
9.7343798 -15.4647 -1051.8101
7.6701698 -14.8901 -1051.72
4.6925702 -13.8118 -1051.45
2.2348001 -13.1036 -1050.92
1.27258 -12.955 -1050.46
-0.40240499 -12.1761 -1050.26
-3.0177 -11.864 -1048.97
-4.2571998 -11.5188 -1048.97
-6.1131601 -10.875 -1048.7
-6.3770099 -11.098 -1047.95
-8.04669 -10.6371 -1047.42
-8.7132597 -10.6003 -1047.2
-10.7913 -10.2064 -1045.85
-12.241 -9.8678303 -1045.2
-14.186 -9.6317396 -1043.8
-15.1599 -9.12146 -1043.21
-17.128799 -9.1135597 -1042.22
-19.928301 -8.9591398 -1039.7
-22.3339 -8.7245197 -1037.75
-22.572001 -8.8888903 -1037.1
-24.6392 -8.8225098 -1035.08
-25.5585 -8.9296303 -1034.09
-26.1765 -8.802 -1033.38
-27.316799 -9.1021099 -1031.4
-28.6131 -8.8601103 -1030.46
-31.0944 -9.0978403 -1027.24
-31.992901 -9.2438698 -1025.9301
-33.2346 -9.5326204 -1023.53
-33.674702 -9.4343596 -1023.07
-33.982201 -9.7221098 -1022.19
-34.386799 -9.90378 -1021.25
-34.809799 -10.0804 -1020.28
-35.115799 -10.101 -1019.47
-35.784801 -10.6679 -1017.37
-35.972801 -12.1352 -1012.46
-36.215801 -12.6951 -1010.89
-36.534199 -13.0833 -1009.38
14.9342 -16.875601 -1051.71
12.2769 -15.767 -1051.52
4.86169 -13.3632 -1051.05
3.5924699 -13.0265 -1051.1801
1.06818 -12.2487 -1050.64
0.192688 -11.7633 -1050.1899
-2.2830801 -11.6765 -1049.53
-5.29285 -10.5633 -1048.6801
-5.9692998 -10.3831 -1048.47
-7.1395302 -10.6103 -1047.65
-8.0042696 -10.1847 -1047.09
-8.8552904 -9.87714 -1047.27
-9.9759502 -9.6616802 -1046.21
-14.1396 -9.0437002 -1043.6899
-16.8179 -8.7378197 -1041.88
-24.9067 -8.2987404 -1034.46
-26.072399 -8.2788696 -1033.21
-28.6127 -8.2825003 -1030.39
-31.1432 -8.5039997 -1027.13
-31.9694 -8.6987305 -1025.92
-32.312 -8.6336699 -1025.41
-33.4506 -9.0609102 -1022.98
-33.679901 -9.3829002 -1021.83
-34.347401 -9.3453398 -1021.14
-34.738098 -9.6300697 -1020.41
-35.085098 -9.7611704 -1019.13
-35.568901 -9.80054 -1018.34
-35.941601 -10.6087 -1015.61
-35.947102 -11.6638 -1012.36
-36.336899 -11.9726 -1010.96
-36.774399 -12.9404 -1007.33
12.289 -15.2056 -1051.59
10.1074 -14.4804 -1051.48
7.7374301 -13.5557 -1051.66
6.5910602 -13.3151 -1051.14
1.14459 -11.774 -1050.5
-0.0616455 -11.2623 -1050.16
-1.33539 -11.0336 -1049.84
-2.8434401 -10.6876 -1049.05
-4.2301002 -10.4245 -1048.85
-6.3821998 -9.8538504 -1047.78
-7.9999399 -9.4364595 -1047.1899
-13.3519 -8.5513296 -1044.17
-18.42 -7.9022799 -1040.66
-19.9014 -7.7476501 -1039.55
-21.5196 -7.8431101 -1037.65
-25.337299 -7.8861098 -1033.76
-27.5674 -7.9555702 -1030.75
-28.052401 -7.9131198 -1030.61
-31.370399 -7.97018 -1026.59
-34.588501 -9.0151396 -1019.97
-35.166901 -9.3161001 -1018.52
-35.896198 -10.92 -1012.24
-36.5126 -12.582 -1007
-36.6833 -15.7906 -997.20502
4.74615 -12.1123 -1051.05
3.72314 -11.9376 -1050.55
2.2689199 -11.3564 -1050.53
0.846802 -10.8949 -1050.37
-0.42144799 -10.5741 -1050.12
-2.28479 -9.7854605 -1049.59
-4.7606802 -9.6734304 -1048.95
-5.3510098 -9.3664904 -1048.51
-6.1129198 -9.3457003 -1047.9301
-6.4303002 -9.2497902 -1047.6899
-7.0856299 -9.1862497 -1047.26
-8.1881704 -8.8009596 -1047.15
-8.9641705 -8.6183796 -1046.86
-9.3891602 -8.7009001 -1046.29
-10.8306 -8.34021 -1045.6899
-12.8547 -7.9900498 -1044.62
-15.0628 -7.7968798 -1042.9399
-17.3505 -7.5019498 -1041.33
-18.9258 -7.2836599 -1040.22
-21.718901 -7.08603 -1037.8
-23.1665 -6.9323702 -1036.05
-24.423201 -7.19556 -1034.6801
-25.7493 -7.0481 -1033.59
-25.855 -7.2796302 -1032.89
-27.613199 -7.0811801 -1031.08
-29.3701 -7.3166199 -1029.08
-30.5305 -7.3011198 -1027.84
-32.551201 -7.52667 -1024.87
-32.5886 -7.8085899 -1024.12
-32.871399 -7.74612 -1023.17
-33.186901 -8.1073599 -1022.6
-33.7766 -8.1041002 -1021.86
-34.0993 -8.3611803 -1020.8
-34.4841 -8.68927 -1019.93
-34.730801 -8.7404203 -1018.63
-37.049 -12.3226 -1005.19
15.1755 -15.1867 -1051.05
3.47736 -10.8978 -1050.65
1.69092 -10.5873 -1050.62
-0.70471197 -9.9456797 -1050.05
-1.52832 -9.8783598 -1049.54
-2.7762499 -9.3789396 -1049.51
-3.78406 -9.1046801 -1049.16
-5.7258301 -8.9547997 -1047.76
-6.68085 -8.5756502 -1047.75
-7.5897198 -8.33533 -1047.45
-7.9534898 -8.2732201 -1047.03
-9.05371 -8.2322397 -1046.72
-15.097 -7.1939702 -1042.9301
-15.5101 -7.2624202 -1042.34
-17.468 -6.7130699 -1041.48
-18.151699 -6.7367902 -1041.03
-18.5389 -6.7681599 -1040.52
-19.416901 -6.71524 -1039.79
-19.771999 -6.7629399 -1039.28
-20.1026 -6.82584 -1038.75
-20.560101 -6.8087201 -1038.3199
-21.069799 -6.7154498 -1037.96
-24.231899 -6.81387 -1034.4399
-24.9874 -6.3893099 -1034.17
-25.4785 -6.70963 -1033.25
-28.312401 -6.9028602 -1029.7
-30.6395 -6.7233 -1027.7
-31.008301 -6.8912401 -1026.88
-31.201401 -7.0534701 -1025.98
-33.0756 -7.6799898 -1022.43
-33.732498 -7.6090698 -1021.77
-33.9417 -7.94907 -1020.61
-34.432899 -8.2058697 -1019.65
-35.4431 -8.8168602 -1016.25
-36.379398 -10.8824 -1008.93
15.2051 -14.8792 -1050.97
9.5623798 -12.8305 -1050.88
7.0142798 -11.7364 -1051.27
3.93469 -10.9031 -1050.8
2.93402 -10.8318 -1050.5601
1.3759201 -10.0564 -1050.35
0.30822799 -9.9167805 -1050.23
-1.59296 -9.2577496 -1049.59
-5.2310801 -8.44977 -1048.22
-6.0549898 -8.1587496 -1047.8199
-6.5208101 -8.2246399 -1047.6
-8.4663095 -7.6001301 -1047.15
-8.8938599 -7.67554 -1046.53
-13.1057 -7.30515 -1043.9
-14.2751 -6.9386902 -1043.01
-15.3089 -6.6958899 -1042.24
-16.054001 -6.6855798 -1041.84
-16.811399 -6.5482502 -1041.49
-17.410999 -6.5313401 -1041.01
-18.171101 -6.3036499 -1040.8
-19.329599 -6.2558599 -1039.62
-19.5203 -6.4109502 -1039.25
-19.982201 -5.9528799 -1038.78
-23.2054 -6.1839299 -1035.78
-26.9266 -6.53442 -1031.29
-27.9331 -6.3971901 -1030.08
-29.034201 -6.2691998 -1029.34
-30.4746 -6.2774 -1027.45
-30.894699 -6.4397602 -1026.78
-32.0313 -6.6581998 -1024.9301
-32.554501 -6.7885699 -1024
-33.0163 -6.89398 -1023.04
-33.438999 -7.0742502 -1022.16
-34.412201 -7.4519701 -1019.82
-34.879799 -8.0852699 -1017.54
-35.943001 -10.0702 -1010.33
-36.259399 -10.4742 -1008.82
8.4146099 -11.599 -1051.42
7.0027499 -11.213 -1051.28
5.3407001 -10.6323 -1051
2.69397 -9.8868704 -1050.55
1.20288 -9.2653198 -1050.51
0.41827399 -9.2625399 -1049.98
-1.96313 -8.5011301 -1049.66
-2.90625 -8.2388 -1049.39
-4.51825 -8.0215502 -1048.5601
-5.2025099 -7.8671298 -1048.16
-5.9555101 -7.70435 -1047.89
-6.42346 -7.7618399 -1047.29
-7.6131001 -7.2627602 -1047.33
-9.3211699 -7.06741 -1046.0601
-13.5253 -6.62991 -1043.14
-14.385 -6.2915001 -1043.08
-14.8495 -6.3331599 -1042.5601
-15.5152 -6.1607099 -1042.2
-16.3353 -6.1366 -1041.74
-17.177799 -5.8115501 -1041.61
-21.4025 -5.76089 -1037.3101
-22.4743 -5.7756701 -1036.0601
-23.0986 -5.7160902 -1035.65
-23.5949 -5.6195998 -1035.3199
-23.986099 -5.61093 -1034.92
-24.2505 -5.7114301 -1034.37
-25.674999 -5.83075 -1032.55
-29.509001 -5.6405602 -1028.9301
-29.936399 -5.8972502 -1027.79
-30.2561 -5.9282498 -1027.39
-31.732 -6.10675 -1025.24
-32.346001 -6.1367202 -1024.5
-33.528301 -6.8703299 -1021.08
-34.217098 -7.1015 -1019.55
-35.1264 -7.55865 -1017.19
-35.2673 -8.2575998 -1015.88
-35.4688 -7.6925998 -1015.75
-35.3904 -8.9557505 -1012.74
-35.599499 -9.1930504 -1011.74
-36.3218 -9.8866301 -1008.84
-36.600899 -11.2546 -1004.44
5.5826998 -9.8983202 -1050.89
3.7934599 -9.4783001 -1050.78
2.5585301 -9.2200298 -1050.51
0.34613001 -8.7074604 -1050.0699
-1.68542 -8.0614595 -1049.41
-2.5267899 -7.9101901 -1049.13
-3.6487999 -7.4615202 -1048.75
-4.6462402 -7.3563199 -1048.5601
-5.0023198 -7.4495802 -1048.28
-7.3692598 -6.8768001 -1047.03
-12.53 -6.0202899 -1044.08
-14.199 -5.8601098 -1042.8199
-14.8369 -5.7246699 -1042.47
-15.2152 -5.5947299 -1042.03
-18.2477 -5.1539001 -1040.64
-18.619301 -5.2157302 -1040.16
-20.117701 -5.1750798 -1038.59
-20.437901 -5.2623301 -1038.0601
-27.820601 -5.07797 -1030.54
-30.1476 -5.4094501 -1027.28
-33.907101 -6.5198398 -1019.88
-34.2001 -6.7804298 -1018.85
-34.457802 -7.2793598 -1017.86
-34.8638 -7.1455698 -1016.95
-35.233799 -8.25488 -1013.16
-35.6572 -8.5757103 -1011.75
-35.9916 -8.9352102 -1010.29
-35.864498 -9.4716501 -1008.27
10.3107 -11.2772 -1051.26
6.55688 -9.7014198 -1051.23
5.1076698 -9.2760897 -1051.03
4.0015302 -9.0522499 -1050.58
1.3456399 -8.2017498 -1050.1801
0.42474401 -8.1807604 -1049.91
-0.37445101 -7.70752 -1049.37
-1.52222 -7.59482 -1049.26
-6.1870699 -6.3385301 -1047.77
-8.7819204 -6.3273602 -1045.47
-11.1394 -5.71136 -1044.71
-13.4865 -5.4541898 -1043.03
-14.0718 -5.3706698 -1042.63
-14.6207 -5.0261798 -1042.08
-15.6137 -5.0307899 -1042.0601
-16.2276 -4.99475 -1041.5601
-17.6329 -4.7428002 -1040.87
-18.2047 -4.6332998 -1040.52
-21.537701 -4.8958402 -1036.76
-22.9133 -4.7016301 -1035.35
-23.430201 -4.5921302 -1035.0601
-24.1588 -4.6372399 -1034.1801
-25.0658 -4.6656199 -1033.01
-25.629499 -4.7226901 -1032.4
-26.633801 -4.8305702 -1031
-29.5247 -4.6458402 -1028.42
-29.7554 -5.3405199 -1026.3199
-33.013699 -5.6324801 -1021.67
-34.294601 -6.5313702 -1017.14
-34.7813 -6.9826398 -1016.23
-35.252499 -7.6655002 -1013.12
-35.537998 -8.1378202 -1011.57
-35.882301 -8.4514799 -1010.12
-36.0765 -8.9194899 -1008.48
10.3303 -10.6855 -1051.14
4.1508198 -8.5654297 -1050.51
1.01715 -7.84167 -1049.28
-0.239197 -7.3382602 -1049.12
-1.1890301 -7.1593299 -1049.1
-4.0876498 -6.5265799 -1047.96
-4.92065 -6.3155198 -1047.6899
-7.25067 -5.6463599 -1046.62
-9.6164598 -5.46454 -1045.24
-10.4689 -5.1907701 -1045.02
-11.6368 -5.13831 -1044.1
-14.0311 -4.82864 -1042.53
-17.6875 -3.8901401 -1040.84
-18.544001 -4.1004901 -1039.9399
-19.202999 -4.0907001 -1039.1899
-20.350201 -4.1370802 -1037.85
-24.0823 -4.1087599 -1034.03
-24.7311 -3.83337 -1033.53
-25.512199 -4.2158499 -1032.22
-25.824499 -4.2719998 -1031.74
-26.434 -4.4119 -1030.72
-27.1415 -4.2007098 -1030.48
-27.785299 -4.0762901 -1030.21
-29.4856 -4.1973 -1028.08
-32.001801 -4.8484502 -1023.88
-32.6301 -5.1279001 -1021.89
-32.921001 -5.50668 -1021.39
-32.608501 -5.2164302 -1020.93
-34.206699 -6.1615 -1016.71
-34.958 -6.76682 -1014.47
-35.332199 -7.2189898 -1012.54
-35.546001 -7.5121198 -1011.52
-35.786701 -7.9519701 -1009.97
-36.5158 -9.3711205 -1004.81
12.5723 -10.5823 -1050.9399
10.9089 -10.2581 -1050.6899
6.3211098 -8.48911 -1050.25
3.2774701 -7.6441998 -1049.77
-0.130005 -6.8470201 -1049.1801
-1.74323 -6.7938199 -1048.4399
-4.8740201 -5.7287898 -1047.62
-8.1500196 -5.1926599 -1045.75
-11.3811 -4.53018 -1043.9399
-14.222 -4.2821999 -1042.35
-14.4103 -4.0132399 -1041.6899
-17.7206 -3.47437 -1040.86
-18.623699 -3.4267299 -1039.98
-19.2927 -3.7274201 -1038.4399
-19.6772 -3.76685 -1038
-20.7012 -3.5938399 -1037.29
-21.3906 -3.7286699 -1036.26
-21.9944 -3.5873101 -1035.98
-22.777201 -3.59952 -1035.12
-23.145 -3.62006 -1034.66
-25.0483 -3.5592999 -1032.84
-25.9468 -3.3371301 -1031.83
-25.946301 -3.8910799 -1030.99
-29.089899 -3.56546 -1028.52
-30.264 -3.8923299 -1026.14
-30.4175 -4.3123798 -1025.34
-30.9163 -4.4990802 -1023.79
-31.5485 -4.2694702 -1023.67
-32.1586 -4.4193401 -1022.73
-32.391998 -4.6644902 -1021.96
-33.1404 -5.0209699 -1019.79
-33.464199 -5.20258 -1018.91
-34.134701 -5.8320599 -1016.31
-34.7855 -6.3056002 -1014.26
-35.445202 -6.9825401 -1011.39
-36.059299 -8.3941698 -1006.55
10.5791 -9.3332195 -1050.97
8.9186401 -8.8074598 -1050.62
7.7526898 -8.4909697 -1050.51
5.3333101 -7.8453102 -1050
4.0341802 -7.60709 -1049.55
1.1665 -6.84793 -1049.3101
