# .PCD v0.7 - Point Cloud Data file format
VERSION 0.7
FIELDS x y z
SIZE 4 4 4
TYPE F F F
COUNT 1 1 1
WIDTH 1705
HEIGHT 1
VIEWPOINT 0 0 0 1 0 0 0
POINTS 1705
DATA ascii
11.1794 -19.701401 -1053.02
10.5759 -19.568001 -1053.36
9.9779997 -19.483299 -1053.34
9.1102304 -19.326799 -1052.95
8.2709398 -18.994499 -1053.1899
7.40698 -18.929701 -1052.98
6.8255601 -18.811701 -1053.03
6.1648598 -18.916201 -1053.15
5.6315899 -18.796499 -1053.1899
4.0185499 -18.636999 -1052.91
1.49808 -18.2896 -1052.67
0.40722701 -17.7314 -1052.2
-2.2124 -17.771299 -1051.3199
-3.1682999 -17.781799 -1051.01
-4.7178302 -17.792299 -1050.52
-5.7474098 -17.591299 -1050.54
-8.7002001 -17.8022 -1049.5699
-9.8897696 -17.917101 -1048.8
29.133101 -25.222 -1049.04
28.527901 -24.947901 -1049.22
28.135099 -24.812401 -1049.38
27.442699 -24.4893 -1049.66
26.8848 -24.3029 -1049.8
25.768299 -23.9112 -1050.04
25.0256 -23.4398 -1050.5
24.4695 -23.2472 -1050.65
23.286699 -22.794201 -1051.04
22.6462 -22.653299 -1051.0699
22.0124 -22.4552 -1051.1801
21.4324 -22.1926 -1051.39
20.9305 -22.1077 -1051.36
20.155001 -21.954 -1051.49
19.668301 -21.638901 -1051.7
19.0453 -21.3311 -1051.97
18.501801 -21.2176 -1052.11
18.042999 -21.0042 -1052.2
17.282101 -20.777599 -1052.49
16.7974 -20.605301 -1052.4
16.1835 -20.5228 -1052.6
14.9399 -20.2339 -1052.62
14.4347 -19.9932 -1052.84
13.8668 -19.913799 -1052.8
12.804 -19.6828 -1052.83
12.2971 -19.473 -1053.02
11.6488 -19.479601 -1052.83
11.1471 -19.242701 -1053.04
9.9549303 -19.084 -1052.95
9.5168505 -18.769699 -1053.25
8.5841103 -18.676901 -1052.8199
7.8627601 -18.5208 -1053.15
7.3130798 -18.4666 -1053.0601
6.8955102 -18.310699 -1052.91
5.5993299 -18.378 -1052.83
3.2669699 -17.847799 -1052.42
1.70026 -17.6721 -1052.1801
0.96636999 -17.6947 -1052.36
-2.1496899 -17.233801 -1051.2
-4.5720201 -17.096399 -1050.62
-5.6894798 -17.0238 -1050.4301
-9.8969097 -17.4611 -1048.78
37.4109 -29.2285 -1044.34
29.899401 -24.8528 -1048.92
29.274401 -24.6147 -1049.14
28.0464 -24.1436 -1049.46
27.4142 -23.883699 -1049.71
26.8643 -23.6821 -1049.85
26.2729 -23.442499 -1049.98
25.699699 -23.289801 -1050.04
25.114 -23.106501 -1050.1801
24.448 -22.822701 -1050.36
23.8472 -22.594101 -1050.51
23.2964 -22.3039 -1050.8101
22.680599 -22.086201 -1050.9399
22.093599 -21.848499 -1051.1899
21.503 -21.7381 -1051.1801
21.0042 -21.607201 -1051.23
19.8643 -21.246401 -1051.45
19.123899 -20.953899 -1051.73
18.6735 -20.5832 -1052.15
17.936899 -20.5555 -1052.05
17.4088 -20.2166 -1052.39
16.6845 -20.2258 -1052.04
15.0299 -19.6399 -1052.58
14.4135 -19.5515 -1052.54
14.0276 -19.3386 -1052.59
13.5244 -19.258699 -1052.5699
12.4399 -19.0098 -1052.63
11.7994 -18.757401 -1052.99
11.1998 -18.7278 -1052.88
10.156 -18.442301 -1052.79
9.51752 -18.2416 -1052.87
9.0051003 -18.152201 -1053.1
8.41782 -18.122299 -1052.97
8.0476103 -18.007601 -1052.78
6.8631001 -17.8323 -1052.96
5.66324 -17.823999 -1052.67
4.5466299 -17.792999 -1052.4301
2.86163 -17.3125 -1052.17
2.06165 -17.2258 -1052.45
0.70141602 -17.0511 -1051.91
-1.04633 -16.9841 -1051.9
-3.11514 -17.2097 -1050.95
-3.45593 -16.9051 -1050.8
-4.5608802 -16.6635 -1050.41
-5.8737798 -16.854 -1050.1
-7.0227699 -16.849501 -1049.72
-8.5580397 -17.0751 -1049.4
-9.6496897 -16.757799 -1048.6899
-10.685 -17.044001 -1048.85
-19.309401 -17.6982 -1044.0601
-20.4289 -18.384399 -1042.9
29.437099 -24.184601 -1048.8199
28.8304 -23.9398 -1048.99
28.103001 -23.528799 -1049.3199
27.495001 -23.2099 -1049.63
26.8547 -22.948 -1049.87
25.8293 -22.8316 -1049.8199
25.044201 -22.537001 -1050.02
24.570499 -22.133499 -1050.46
23.968901 -21.969299 -1050.59
23.321699 -21.825199 -1050.66
22.760799 -21.562 -1050.89
22.0154 -21.5313 -1050.75
21.5373 -21.1024 -1051.2
20.9097 -20.9217 -1051.3101
20.473301 -20.842501 -1051.23
19.693001 -20.67 -1051.4301
19.188601 -20.437 -1051.62
18.593901 -20.339899 -1051.6
18.085199 -19.9984 -1051.96
17.611401 -19.950701 -1051.8101
16.848101 -19.753901 -1051.95
15.7112 -19.3556 -1052.26
15.1317 -19.023899 -1052.6
14.4352 -19.042801 -1052.4399
14.0799 -18.8097 -1052.47
13.4586 -18.6094 -1052.75
12.4012 -18.382299 -1052.79
11.8531 -18.257601 -1052.8199
11.2567 -18.190201 -1052.74
10.7105 -18.0347 -1052.83
9.6719999 -17.7771 -1052.6801
9.0607595 -17.639999 -1052.99
8.4253197 -17.682301 -1052.76
7.4513202 -17.377399 -1052.9301
6.8958702 -17.3351 -1052.84
5.7555799 -17.2369 -1052.65
5.0071998 -17.0919 -1052.3
3.1322899 -16.819401 -1052.48
1.7142299 -16.566601 -1052.0601
-2.07126 -16.2624 -1050.88
-3.3510101 -16.4478 -1050.62
-4.5120802 -16.2796 -1050.48
-8.5068398 -16.316401 -1049.11
-9.3646898 -16.388 -1048.73
-10.6712 -16.201401 -1048.35
-20.0632 -17.7001 -1043.2
-24.108299 -18.496401 -1040.41
30.2423 -24.0809 -1048.1801
29.5399 -23.7272 -1048.52
28.1576 -23.0182 -1049.16
27.4359 -22.874001 -1049.26
26.861099 -22.4949 -1049.6801
26.3846 -22.210699 -1049.9301
25.7659 -22.204 -1049.78
25.179001 -21.875999 -1050.11
24.547001 -21.7722 -1050.14
23.9615 -21.5308 -1050.3101
23.3895 -21.2649 -1050.46
22.823299 -21.0954 -1050.6
22.191099 -20.808599 -1050.9301
21.6574 -20.6947 -1050.89
20.491699 -20.269699 -1051.14
19.969299 -20.1357 -1051.1899
19.3659 -19.9512 -1051.3199
18.6873 -19.748301 -1051.58
18.1141 -19.58 -1051.6899
17.596201 -19.3256 -1051.92
17.009399 -19.1971 -1051.96
15.8544 -18.751301 -1052.11
15.3657 -18.586399 -1052.1801
13.9926 -18.3246 -1052.46
13.0775 -18.0427 -1052.36
12.4838 -17.898399 -1052.41
11.9222 -17.775299 -1052.67
11.3452 -17.6154 -1052.72
10.8286 -17.466801 -1052.52
10.2261 -17.315599 -1052.59
9.5742197 -17.368799 -1052.65
9.1078501 -17.1397 -1052.84
8.4772902 -17.155001 -1052.67
8.03543 -16.971001 -1052.83
7.599 -16.840599 -1052.5
7.0036898 -16.7314 -1052.83
5.82974 -16.737499 -1052.55
4.7476501 -16.1588 -1052.2
3.15607 -16.343 -1052.34
3.1350999 -15.9936 -1051.99
1.7561001 -16.0175 -1051.9399
0.75744599 -15.9534 -1051.73
-0.22827099 -15.9931 -1051.35
-1.97101 -15.8032 -1051.09
-3.4185801 -16.032499 -1050.78
-5.6993999 -15.7957 -1049.85
-10.7749 -15.8718 -1048.08
-20.558399 -17.180799 -1042.9
-23.998899 -18.017 -1040.29
-24.491699 -18.141899 -1039.9301
33.259399 -25.325001 -1046.15
32.7579 -24.691601 -1046.92
32.0326 -24.516899 -1047.01
30.6765 -23.989599 -1047.51
30.1798 -23.4783 -1048.15
29.4795 -23.1465 -1048.41
28.861099 -22.782101 -1048.78
28.2288 -22.443899 -1049.16
26.456699 -21.661501 -1049.87
25.785 -21.658501 -1049.74
25.2635 -21.3046 -1050.09
24.619801 -21.2295 -1050.09
24.003799 -20.940701 -1050.21
23.424801 -20.7838 -1050.45
22.8736 -20.463699 -1050.73
22.293301 -20.313801 -1050.61
21.584499 -20.151199 -1050.88
21.1367 -19.931 -1050.88
20.3832 -19.766001 -1051.17
19.8391 -19.5734 -1051.3
19.4177 -19.3839 -1051.1801
18.796101 -19.176201 -1051.3199
18.3092 -19.068001 -1051.34
17.6392 -18.812901 -1051.78
17.051901 -18.6866 -1051.8101
16.5235 -18.427799 -1052.0601
15.9007 -18.3305 -1052.09
15.1105 -18.212999 -1052.0601
14.1202 -17.691999 -1052.55
13.5229 -17.6516 -1052.48
12.9101 -17.7078 -1052.23
12.4122 -17.6311 -1052.15
11.9232 -17.504999 -1052.17
11.4099 -16.872299 -1052.13
10.1741 -17.0445 -1052.46
8.56073 -16.316999 -1052.17
7.5687299 -16.0613 -1052.21
7.0834398 -16.1796 -1052.38
6.5094299 -16.171301 -1052.6801
5.9251099 -15.7599 -1052.26
4.3078599 -15.9241 -1052.4301
2.96808 -15.6935 -1051.85
0.64843798 -15.2708 -1051.4301
-0.77310199 -15.0412 -1051.24
-1.89703 -15.1424 -1050.79
-4.3777199 -15.051 -1050.1899
-5.8126798 -15.1233 -1049.92
-10.4261 -15.1786 -1048.13
-20.618099 -16.408899 -1042.84
-21.4403 -16.929701 -1041.95
32.304401 -23.9767 -1046.92
30.83 -23.241501 -1047.75
30.187099 -22.827499 -1048.09
29.612301 -22.3937 -1048.67
28.8209 -22.385599 -1048.53
27.686701 -21.705099 -1049.14
25.8391 -21.047199 -1049.53
25.1411 -21.068701 -1049.51
24.5821 -20.816999 -1049.77
24.071699 -20.455299 -1050.1801
23.4375 -20.282801 -1050.26
22.942801 -19.9041 -1050.65
22.2257 -19.842501 -1050.58
21.033001 -19.412701 -1050.91
19.8475 -19.1222 -1051.04
19.441999 -18.784401 -1051.1
18.771601 -18.7013 -1051.38
18.2582 -18.4564 -1051.5699
17.648399 -18.3389 -1051.58
17.1593 -18.1346 -1051.4
16.630199 -18.0089 -1051.46
15.9506 -17.809401 -1051.88
15.2831 -17.615801 -1052.0699
13.9004 -17.2383 -1051.85
12.5814 -17.0292 -1052.15
10.8522 -16.640699 -1052.29
8.6304598 -15.8755 -1051.87
8.2348299 -16.072001 -1052.38
7.6575298 -15.7086 -1052.22
4.5231299 -15.2913 -1051.91
4.7283301 -15.4627 -1051.45
2.33319 -14.8476 -1051.51
0.69030797 -14.9017 -1051.05
-0.158447 -14.916 -1050.98
-0.77227801 -14.7687 -1051
-1.7128299 -14.7678 -1050.6899
-2.8527501 -14.6602 -1050.3199
-3.27689 -14.5462 -1050.35
-4.39645 -14.6279 -1049.9
-8.3004198 -14.4926 -1048.86
-10.8271 -14.559 -1047.9301
-14.2702 -14.8565 -1046.46
-15.7428 -14.9599 -1045.76
31.454399 -22.9111 -1047.41
30.835199 -22.635201 -1047.6899
30.2493 -22.244801 -1047.99
29.597799 -21.9426 -1048.4
28.950001 -21.650999 -1048.6899
28.3943 -21.360201 -1048.77
27.5639 -21.2363 -1048.95
27.1052 -20.931499 -1049.0601
25.8113 -20.7015 -1049.3101
25.2637 -20.4116 -1049.58
24.7232 -20.025299 -1049.76
24.0214 -20.078899 -1049.8
23.561899 -19.580099 -1050.34
22.8363 -19.6014 -1050.2
22.3498 -19.1663 -1050.66
21.7243 -19.0098 -1050.74
21.0998 -18.834101 -1050.85
20.506599 -18.676701 -1050.9301
20.1127 -18.4599 -1050.8199
18.750099 -18.283501 -1051.05
17.674999 -17.843599 -1051.37
17.1635 -17.584299 -1051.65
16.5271 -17.524599 -1051.5699
15.9491 -17.3878 -1051.63
15.335 -17.2337 -1051.7
14.7808 -17.0061 -1051.92
14.1046 -16.7036 -1051.21
11.5171 -15.9293 -1051.67
10.3377 -15.7365 -1051.61
7.2142901 -15.2635 -1052.37
6.64606 -14.9974 -1052.04
3.3527801 -14.6189 -1051.25
2.3317299 -14.5111 -1051.13
1.90921 -14.719 -1051.6
0.69793701 -14.4982 -1050.71
-0.293762 -14.2991 -1050.6899
-0.69793701 -14.0421 -1050.88
-1.57745 -14.3032 -1050.46
-3.2020299 -13.9288 -1050.3199
-4.2744398 -13.9785 -1049.9399
-5.3846698 -13.9591 -1049.63
-9.3065796 -14.0425 -1048.23
-10.6818 -14.2066 -1047.65
-12.2217 -14.2294 -1047.21
-12.7639 -14.1216 -1047.05
-14.2331 -14.3835 -1046.1801
-15.3931 -14.7535 -1045.29
31.4634 -22.3871 -1047.23
30.2201 -21.811701 -1047.86
29.5604 -21.5424 -1048.05
28.9408 -21.2057 -1048.41
28.3325 -20.827 -1048.8101
27.6422 -20.7124 -1048.87
27.125299 -20.4158 -1049.13
26.5928 -20.189501 -1049.03
25.917101 -20.080799 -1049.3
25.3927 -19.7094 -1049.7
24.799999 -19.4858 -1049.87
24.1688 -19.319901 -1049.96
23.594 -19.062 -1050.22
22.998501 -18.8188 -1050.1
22.499901 -18.657499 -1050.17
21.816401 -18.3962 -1050.41
21.1332 -18.333099 -1050.6899
19.9778 -17.983999 -1050.89
19.3367 -17.8927 -1050.85
18.862301 -17.624399 -1051.09
18.334299 -17.408701 -1051.27
17.828199 -17.1602 -1051.08
17.219299 -17.0336 -1051.52
15.9652 -16.884701 -1051.42
15.5618 -16.5028 -1051.39
13.4193 -16.0306 -1051.4301
11.6088 -15.5605 -1051.67
10.5039 -15.0685 -1051.61
9.8916903 -15.4644 -1051.83
8.8562603 -14.7668 -1051.61
7.17413 -14.5586 -1051.89
5.05829 -14.1808 -1051.38
4.5595698 -14.2169 -1051.52
3.5847199 -14.136 -1051.33
2.59851 -14.0763 -1051.11
2.05005 -13.6746 -1051.25
0.88995397 -13.7189 -1050.89
-0.19616701 -13.6799 -1050.64
-1.51923 -13.7318 -1050.33
-4.0689702 -13.6202 -1049.71
-5.3474998 -13.4314 -1049.47
-6.7890301 -13.2499 -1049.25
-8.2095299 -13.4196 -1048.55
-9.2499704 -13.4956 -1048.09
-11.6385 -13.664 -1047.16
-13.142 -13.6751 -1046.5601
-14.206 -13.9038 -1045.9
-15.3177 -14.2321 -1045.01
-17.3703 -14.4629 -1044
-32.8965 -19.887699 -1030.3
31.499701 -21.8116 -1047.09
30.9937 -21.3232 -1047.66
30.254499 -21.0646 -1047.79
29.6141 -20.7327 -1048.1
29.0427 -20.496401 -1048.3
28.343 -20.424801 -1048.42
27.8885 -20.1427 -1048.49
27.115999 -19.9914 -1048.6801
26.594101 -19.6395 -1049.0601
25.9708 -19.4853 -1049.16
25.3846 -19.207199 -1049.42
24.867599 -18.883801 -1049.74
24.2054 -18.793501 -1049.74
23.598801 -18.5769 -1049.9
23.0334 -18.3204 -1050.13
22.358601 -18.1922 -1050.15
21.8036 -17.9317 -1050.42
21.121401 -17.857 -1050.38
20.535299 -17.662701 -1050.5
20.1495 -17.2747 -1050.6
19.5264 -17.113501 -1051.03
18.9431 -16.9641 -1051.0601
18.4526 -16.792801 -1050.86
17.8379 -16.632401 -1051.3
17.264099 -16.480301 -1051.33
16.7749 -16.317699 -1051.0699
16.1696 -16.132799 -1051.16
15.6982 -16.067301 -1051.14
14.557 -15.7534 -1051.25
13.8402 -15.6976 -1051.61
13.371 -15.457 -1051.79
12.8789 -15.3476 -1051.37
8.4790602 -14.3435 -1051.5699
7.95819 -14.2718 -1051.55
6.2298002 -13.7929 -1051.34
3.60901 -13.6028 -1051.23
2.49295 -13.3416 -1050.92
0.70184302 -13.4558 -1050.5
-0.51049799 -13.1907 -1050.5
-1.6488 -12.902 -1050.3199
-4.1730299 -12.9445 -1049.75
-5.34796 -12.9774 -1049.1801
-6.698 -12.9005 -1048.98
-7.9930401 -13.1286 -1048.17
-14.1439 -13.3872 -1045.7
-15.3542 -13.6007 -1045
-22.198999 -14.885 -1040.73
31.613001 -21.121901 -1047.08
29.802401 -20.4499 -1047.7
29.088499 -20.2265 -1047.85
28.454599 -19.927999 -1048.14
27.889299 -19.583799 -1048.45
27.370501 -19.4433 -1048.49
26.7712 -19.1842 -1048.7
26.0791 -18.809799 -1049.17
25.536699 -18.6884 -1049.14
24.7763 -18.6152 -1049.22
24.289801 -18.157499 -1049.7
23.7047 -17.941299 -1049.87
23.098801 -17.7342 -1049.84
22.428301 -17.6178 -1050.03
21.962601 -17.351101 -1050.1
21.275499 -17.111601 -1050.51
20.6332 -16.9888 -1050.5
20.113501 -16.739901 -1050.71
19.524099 -16.6262 -1050.75
19.017 -16.3918 -1050.97
17.1786 -15.8117 -1051.0699
16.656401 -15.927 -1051.05
16.170601 -15.6077 -1051.38
15.5702 -15.4656 -1051.41
13.8811 -15.1019 -1051.49
13.4169 -14.9386 -1051.62
12.875 -14.8259 -1051.3
12.2226 -14.863 -1051.42
11.737 -14.6435 -1051.6
11.1902 -14.4879 -1051.67
10.0639 -14.2393 -1051.72
9.0652504 -14.0038 -1051.38
8.5157499 -13.8156 -1051.47
7.4071698 -13.7451 -1051.71
3.5870099 -12.7921 -1051.04
-0.121155 -12.5922 -1050.3
-1.64423 -12.4141 -1050.04
-3.1006501 -12.4942 -1049.89
-4.16959 -12.3861 -1049.34
-12.9666 -12.8421 -1046.0699
-14.8292 -13.0562 -1045.1
-22.563 -14.5517 -1040.15
31.726101 -20.738199 -1046.8199
30.422501 -20.146601 -1047.23
29.8687 -19.8577 -1047.5
28.701799 -19.489799 -1047.86
27.35 -18.856001 -1048.4301
26.5837 -18.688499 -1048.51
26.083401 -18.2854 -1048.95
25.478901 -18.067101 -1049.1
24.903099 -17.8494 -1049.3199
24.339199 -17.5723 -1049.51
23.7341 -17.4589 -1049.5699
23.089001 -17.297001 -1049.6801
22.5956 -17.050699 -1049.85
21.9865 -16.835199 -1050.01
21.287001 -16.608299 -1050.23
20.6479 -16.51 -1050.27
20.1978 -16.117701 -1050.67
19.6014 -15.9748 -1050.7
18.4557 -15.7635 -1050.76
17.8923 -15.5477 -1050.92
17.425699 -15.2881 -1051.1899
16.7771 -15.2422 -1050.9
16.232901 -15.0215 -1051.24
15.5523 -15.0319 -1051.08
15.2051 -14.8792 -1050.97
14.5231 -14.6099 -1051.37
13.9247 -14.5753 -1051.28
12.9204 -14.2721 -1051.4301
12.3364 -14.181 -1051.41
11.8873 -14.1348 -1051.16
10.5038 -14.0249 -1051.1899
10.1343 -13.6048 -1051.63
9.1226196 -13.4701 -1051.24
8.0456495 -13.2756 -1051.26
5.16855 -13.0359 -1051.11
3.60501 -12.2393 -1050.9301
2.57443 -12.6779 -1050.9
2.1740699 -12.5171 -1051.03
-0.40240499 -12.1761 -1050.26
-4.0661602 -11.7592 -1049.35
-14.994 -12.3431 -1044.98
-32.4772 -18.5961 -1029.34
31.769501 -20.2202 -1046.67
30.4688 -19.6609 -1047.05
29.915501 -19.316 -1047.38
28.7621 -18.9767 -1047.6899
28.1071 -18.3862 -1048.3101
27.4468 -18.099501 -1048.5699
26.7061 -18.016199 -1048.5699
26.1012 -17.819599 -1048.72
25.4883 -17.6341 -1048.83
24.8936 -17.4636 -1048.97
23.1476 -16.740601 -1049.59
22.582199 -16.4352 -1049.87
21.996201 -16.2882 -1049.9
21.382601 -16.008499 -1050.22
20.9359 -15.9845 -1050.0699
20.213499 -15.6535 -1050.42
19.617201 -15.5632 -1050.4399
19.016399 -15.4961 -1050.38
18.5492 -15.1452 -1050.74
17.9711 -15.0059 -1050.84
17.395201 -14.8202 -1050.91
16.2743 -14.478 -1051.09
15.6332 -14.4428 -1051.01
15.1152 -14.2071 -1051.1899
14.5491 -14.1328 -1051.17
12.9705 -13.7271 -1051.34
12.3504 -13.7241 -1051.1899
11.9949 -13.6231 -1051
5.27631 -12.2878 -1051.36
2.1889601 -12.0072 -1050.84
0.96694899 -12.1646 -1050.28
-0.47689801 -11.8186 -1050.33
-1.40967 -11.5822 -1049.9399
-2.5453501 -11.795 -1049.76
-3.01282 -11.477 -1049.64
-4.0137601 -11.2584 -1049.25
-5.09027 -11.166 -1049.04
-8.0124798 -11.2636 -1047.97
-8.8878803 -11.6162 -1047.49
-15.2701 -12.0725 -1044.7
-16.3694 -11.94 -1044.22
32.3932 -20.119101 -1045.9399
31.8326 -19.7229 -1046.34
31.323 -19.553499 -1046.63
30.532 -19.075701 -1047.01
30.010201 -18.7873 -1047.3199
29.4377 -18.768101 -1047.27
28.1113 -17.9382 -1048.11
27.3927 -17.7822 -1048.15
26.725401 -17.5392 -1048.35
26.2286 -17.1728 -1048.8101
25.578699 -17.026501 -1048.84
25.021 -16.7967 -1049.04
24.490999 -16.702 -1049.0699
23.8571 -16.4314 -1049.28
22.690399 -15.7994 -1049.9301
22.1038 -15.5852 -1050.08
20.752199 -15.4533 -1049.97
19.1471 -14.8159 -1050.5
18.6327 -14.5482 -1050.76
18.059799 -14.3809 -1050.83
17.4016 -14.4097 -1050.66
16.2558 -14.0712 -1050.84
15.1311 -13.7748 -1050.9399
14.7477 -13.7098 -1050.76
14.0298 -13.5297 -1051.0601
13.7353 -13.4831 -1050.73
12.9348 -13.3254 -1051.04
12.3986 -13.1143 -1051.2
11.1793 -12.7943 -1051.37
10.6398 -12.5796 -1051.55
10.0825 -12.351 -1051.76
9.6107798 -12.2864 -1051.46
8.9755898 -12.1768 -1051.71
8.4691801 -12.0716 -1051.71
7.9136 -12.0409 -1051.61
6.3650198 -11.7518 -1051.61
5.84723 -11.6657 -1051.58
5.2848802 -11.642 -1051.48
4.8403902 -11.5398 -1051.09
3.6517899 -11.5522 -1051.09
2.6788299 -11.4971 -1050.9
1.25281 -11.2517 -1050.34
-3.9688399 -10.6803 -1049.17
-8.7943697 -11.112 -1047.34
30.5879 -18.5616 -1046.85
30.011801 -18.295 -1047.08
29.2659 -18.319201 -1046.9301
28.679501 -17.9296 -1047.38
28.055799 -17.623501 -1047.6801
27.504801 -17.268299 -1048.04
26.879101 -16.9807 -1048.27
26.2952 -16.6339 -1048.6899
25.6724 -16.4377 -1048.8101
25.0833 -16.2616 -1048.96
24.4883 -16.037201 -1049.16
23.9566 -15.6784 -1049.5
23.192101 -15.8188 -1049.2
22.694 -15.3936 -1049.63
22.1022 -15.1573 -1049.8199
21.4879 -15.0004 -1049.9301
21.0156 -14.8917 -1049.8101
20.2894 -14.7039 -1050.0699
19.117399 -14.4646 -1050.13
18.582701 -14.2062 -1050.36
18.0881 -13.9819 -1050.34
17.489 -13.8242 -1050.4399
16.332899 -13.5414 -1050.75
15.7536 -13.4038 -1050.78
15.2049 -13.2122 -1050.9301
14.6415 -13.0974 -1050.9399
13.5504 -12.7925 -1051.05
12.9467 -12.7177 -1051.0601
12.3477 -12.2939 -1051.25
11.7947 -12.2936 -1051.4
11.3 -12.0354 -1051.39
10.6423 -11.9724 -1051.64
10.2936 -11.8366 -1051.37
9.0075102 -11.6341 -1051.65
7.9768701 -11.4683 -1051.61
7.4798598 -11.329 -1051.65
7.0027499 -11.213 -1051.28
6.3404498 -11.2702 -1051.42
5.4368901 -11.0246 -1051.11
4.7484999 -10.9871 -1051.4
-4.8578501 -10.2426 -1048.99
-9.8153095 -10.5616 -1046.89
-18.5114 -11.5583 -1042.42
-20.936501 -12.0223 -1040.84
34.641602 -20.1546 -1044.5601
30.6728 -18.045 -1046.76
30.017599 -17.9002 -1046.79
29.487 -17.609301 -1047.05
28.828199 -17.253799 -1047.45
28.285101 -17.0756 -1047.5699
26.878901 -16.446501 -1048.23
26.311399 -16.184099 -1048.47
25.6964 -15.9807 -1048.6
24.5296 -15.5548 -1048.98
23.9743 -15.2879 -1049.24
23.309799 -15.1919 -1049.2
22.714399 -14.8786 -1049.37
22.1698 -14.7011 -1049.47
21.5226 -14.4648 -1049.66
20.984301 -14.309 -1049.75
20.349701 -14.1651 -1049.97
19.1952 -13.9194 -1050.08
18.7292 -13.5922 -1050.42
18.068501 -13.5815 -1050.28
17.684299 -13.4108 -1050.16
17.023701 -13.0913 -1050.7
16.375601 -13.0672 -1050.58
14.7212 -12.5298 -1050.9301
14.2751 -12.3692 -1050.6801
13.5598 -12.1739 -1051.14
12.9897 -12.033 -1051.28
12.4409 -11.787 -1051.46
11.7891 -11.7466 -1051.38
9.0125999 -11.2199 -1051.38
7.4727802 -10.8984 -1051.4399
6.5707402 -10.6207 -1051.11
3.7067001 -10.3707 -1051.15
-4.5113502 -9.4987497 -1049.13
-5.3881202 -9.5265799 -1048.98
-8.8552904 -9.87714 -1047.27
-17.5588 -10.8463 -1042.83
-18.506599 -11.0211 -1042.25
-19.942801 -11.2737 -1041.34
-24.9937 -12.8538 -1037.15
34.592499 -19.592899 -1044.41
31.5739 -17.9744 -1046.0601
30.681499 -17.657101 -1046.42
30.0338 -17.456499 -1046.5601
29.4536 -17.099899 -1046.91
28.891001 -16.7635 -1047.21
28.192499 -16.541201 -1047.49
27.658199 -16.187099 -1047.7
26.8836 -15.9964 -1047.98
26.4095 -15.6909 -1048.14
25.7491 -15.4221 -1048.38
25.2302 -15.1572 -1048.8101
24.5226 -15.1451 -1048.6899
24.057301 -14.6976 -1049.1899
23.384399 -14.6156 -1049.16
22.7637 -14.434 -1049.28
22.211201 -14.1484 -1049.58
21.558599 -14.0117 -1049.6
20.501801 -13.6111 -1049.66
19.8365 -13.4747 -1049.95
19.376801 -13.2897 -1049.86
18.171101 -12.9754 -1050.26
17.5765 -12.871 -1050.26
17.0516 -12.5923 -1050.2
16.499201 -12.4339 -1050.62
15.2458 -12.1982 -1050.61
14.7474 -11.8342 -1050.71
14.1238 -11.7597 -1051.01
13.6015 -11.5828 -1051.23
12.9878 -11.449 -1051.23
10.7135 -10.9584 -1051.3
10.3303 -10.6855 -1051.14
9.1384602 -10.5681 -1051.4301
8.8000498 -10.4318 -1051.05
8.06604 -10.5097 -1051.28
7.6131902 -9.84235 -1051.21
5.2896099 -9.74405 -1050.73
3.6844499 -9.5602398 -1050.55
1.20288 -9.2653198 -1050.51
0.115875 -9.1103497 -1050.17
-1.59296 -9.2577496 -1049.59
-8.8328199 -9.1715097 -1047.26
-14.1565 -9.6492901 -1044.75
-17.341299 -10.4038 -1042.53
-19.810101 -10.7913 -1041.11
30.843399 -17.073999 -1046.21
30.181101 -16.788 -1046.63
29.592699 -16.4254 -1047.03
28.8971 -16.153799 -1047.1
28.235701 -16.001699 -1047.38
26.993 -15.3837 -1047.9399
26.4632 -15.1374 -1048.01
25.798201 -14.9286 -1048.36
25.2416 -14.6561 -1048.38
24.631701 -14.5233 -1048.6899
24.0602 -14.2783 -1048.92
23.525801 -14.0767 -1048.8101
22.3463 -13.6584 -1049.11
21.611401 -13.4714 -1049.48
21.0144 -13.3055 -1049.62
20.3976 -13.244 -1049.58
19.990101 -12.8867 -1049.63
19.3776 -12.7376 -1050.01
18.751499 -12.6722 -1049.91
18.2083 -12.4561 -1050.09
17.664101 -12.3035 -1050.2
17.101999 -12.0828 -1050.35
16.524 -11.8478 -1050.16
15.8087 -11.9603 -1050.23
15.2641 -11.6161 -1050.5699
14.3528 -11.108 -1050.71
13.1189 -10.7093 -1050.9301
12.4718 -10.7911 -1051.17
11.9229 -10.6462 -1051.21
11.4347 -9.99683 -1051.08
6.1066298 -9.4109802 -1050.8199
3.8213799 -9.0476398 -1050.37
2.80902 -9.2231398 -1050.74
2.7313199 -8.9216299 -1050.1899
1.28537 -8.6164904 -1050.27
0.34613001 -8.7074604 -1050.0699
-1.28461 -8.5184603 -1049.86
-3.9023099 -8.4783897 -1048.9301
-4.24823 -8.1955605 -1049.22
-4.90311 -8.3440599 -1048.85
-19.693399 -10.3232 -1040.85
30.875601 -16.4526 -1046.33
30.2101 -16.2577 -1046.45
29.5959 -16.0291 -1046.7
28.9419 -15.7289 -1046.9399
28.393101 -15.3715 -1047.15
27.7939 -15.1225 -1047.39
27.0221 -14.8846 -1047.78
26.3731 -14.7337 -1047.9
25.906401 -14.354 -1048.05
25.2827 -14.191 -1048.41
24.7185 -13.9314 -1048.61
24.0856 -13.7444 -1048.71
23.5506 -13.4877 -1049.02
22.9349 -13.2702 -1048.86
22.337299 -13.0446 -1049.02
21.760401 -12.8707 -1049.15
21.098499 -12.7033 -1049.53
20.5289 -12.5836 -1049.5699
19.462299 -12.175 -1049.89
18.825399 -12.1305 -1049.84
18.3008 -11.8131 -1049.74
17.708599 -11.8163 -1050.02
17.1677 -11.5602 -1050.22
16.5854 -11.4124 -1050.28
15.9337 -10.9302 -1050.38
15.2726 -10.9881 -1050.65
14.7068 -10.7888 -1050.8199
13.7556 -10.3247 -1050.71
12.0153 -9.89151 -1050.85
10.8529 -9.9395103 -1051.03
9.9338999 -9.5102501 -1050.8199
8.1959801 -9.1282301 -1050.88
6.6220102 -8.9260902 -1050.67
3.04791 -8.4505596 -1050.29
1.39703 -8.0693703 -1050.11
-0.187805 -8.0485201 -1049.92
-3.7878101 -7.9471998 -1048.71
31.529301 -16.185101 -1045.77
30.8932 -15.9308 -1046.0699
30.205601 -15.6207 -1046.29
29.582899 -15.5306 -1046.39
28.8923 -15.3538 -1046.54
28.3183 -14.9675 -1046.98
27.795401 -14.5169 -1047.3101
27.2421 -14.3095 -1047.5
26.626699 -14.0701 -1047.7
25.883101 -13.8123 -1048.0601
25.356501 -13.5518 -1048.34
24.7703 -13.3922 -1048.45
24.114901 -13.2442 -1048.49
23.620399 -12.9007 -1048.85
22.469101 -12.5883 -1048.79
21.7964 -12.308 -1049.01
21.143 -12.165 -1049.36
20.533501 -12.1093 -1049.3
18.917601 -11.4224 -1049.52
18.3535 -11.2731 -1049.59
17.7946 -11.1798 -1049.9399
17.2055 -11.0291 -1050.01
16.569599 -10.7936 -1050.17
15.8981 -10.5391 -1050.4301
15.475 -10.203 -1050.42
14.8885 -10.0323 -1050.53
14.317 -9.8808298 -1050.58
13.7667 -9.7416697 -1050.59
13.144 -9.8056898 -1050.8199
10.9784 -8.8532696 -1050.66
10.3543 -9.2087097 -1050.9301
6.2504902 -8.2397804 -1050.27
5.6385798 -8.1370802 -1050.21
3.1012001 -7.9324999 -1050.14
-4.8412199 -7.4271898 -1048.17
-32.1838 -14.2351 -1028.3
31.6707 -15.7488 -1045.53
30.968399 -15.363 -1045.96
30.250601 -15.3027 -1045.88
29.805 -14.6883 -1046.6801
29.082001 -14.5955 -1046.66
28.383301 -14.3276 -1046.91
27.671499 -14.099 -1047.08
27.1632 -13.6346 -1047.65
26.5518 -13.4022 -1047.84
25.8843 -13.3252 -1047.8101
25.297701 -13.0252 -1048.02
24.7719 -12.8464 -1048.12
24.2304 -12.6213 -1048.45
23.6868 -12.4839 -1048.37
23.0846 -12.1074 -1048.9301
22.459801 -11.9206 -1049.0601
21.865601 -11.703 -1049.22
21.2866 -11.6479 -1048.97
20.741699 -11.4835 -1049.05
20.118 -11.2148 -1049.48
19.533701 -11.1249 -1049.46
18.407 -10.8098 -1049.66
17.605101 -10.3414 -1049.83
17.1133 -10.4794 -1049.79
16.564199 -10.0869 -1050.29
15.9328 -9.8952303 -1050.42
15.3901 -9.7426796 -1050.53
14.8515 -9.5752001 -1050.65
10.4786 -8.61374 -1050.87
10.1052 -8.5289898 -1050.46
9.4475098 -8.3478098 -1050.5601
8.4559898 -8.3327303 -1050.3199
7.6505098 -8.41119 -1049.89
4.1613202 -7.66431 -1049.96
1.48331 -7.2539101 -1049.28
0.234558 -7.3011198 -1049.3101
-3.57458 -6.9987798 -1048.5
-5.13025 -6.7972999 -1048.3199
-17.266399 -7.9176602 -1042.3199
-32.485901 -13.9247 -1027.5699
31.6425 -15.2042 -1045.4399
31.075701 -14.7442 -1045.87
30.4727 -14.4471 -1046.1801
29.7397 -14.3916 -1046.09
28.5623 -13.8324 -1046.78
27.2136 -13.0467 -1047.5601
26.521299 -12.9927 -1047.48
26.0448 -12.5718 -1047.96
25.3785 -12.523 -1047.86
24.8734 -12.2546 -1048.13
24.270201 -12.0566 -1048.24
23.716499 -11.8268 -1048.49
23.065901 -11.6455 -1048.6
22.446501 -11.4738 -1048.62
21.935699 -11.3257 -1048.67
21.2908 -10.9996 -1049.0601
20.746901 -10.8037 -1049.24
18.313801 -10.3878 -1049.26
17.8235 -10.0258 -1049.7
17.138399 -9.8247404 -1049.89
14.9774 -9.0724802 -1050.1899
14.3661 -8.9824495 -1050.41
13.519 -8.8601398 -1050.03
11.0576 -8.3670998 -1050.37
10.5081 -8.1135597 -1050.5699
9.9741802 -7.97894 -1050.6899
9.36411 -7.9799199 -1050.52
7.95819 -7.73489 -1050.0601
6.5397902 -7.6535301 -1049.76
5.7273898 -7.58319 -1050
3.12357 -7.2934599 -1049.7
2.6958899 -7.0366201 -1049.9
1.58386 -6.6500502 -1049.26
0.591187 -6.7386799 -1049.38
-1.3183 -6.3259602 -1049.4
-3.5579801 -6.50525 -1048.38
-4.4404898 -6.46982 -1048.14
-8.5670795 -6.5004001 -1046.6801
-32.502701 -13.3505 -1027.51
31.6147 -14.6804 -1045.34
31.119699 -14.2047 -1045.73
30.5033 -13.9235 -1045.98
29.7815 -13.8879 -1045.9301
29.099899 -13.6564 -1046.12
28.5882 -13.0607 -1046.8101
27.9195 -12.9679 -1046.98
27.214899 -12.6082 -1047.28
26.618601 -12.353 -1047.48
25.3631 -12.1175 -1047.54
24.8652 -11.8792 -1047.77
24.3423 -11.5461 -1048.13
23.774799 -11.2782 -1048.37
23.123899 -11.2076 -1048.29
22.5611 -10.8454 -1048.66
21.940001 -10.6857 -1048.79
20.7677 -10.3839 -1049
20.218 -10.197 -1049.09
19.630199 -10.0826 -1049.08
19.162701 -9.6968098 -1049.5601
18.394501 -9.5928297 -1049.5
17.8489 -9.3977404 -1049.64
17.2656 -9.1921396 -1049.92
16.626499 -9.1723299 -1049.8101
16.0786 -9.0011301 -1049.84
14.8794 -8.8778696 -1049.74
13.8224 -8.61761 -1049.8199
13.4272 -8.3218403 -1049.9301
12.1982 -8.0263395 -1050.05
11.2342 -7.8065801 -1050.3199
10.6238 -7.6064801 -1050.45
8.4046001 -7.58356 -1049.91
6.8811302 -7.2996802 -1049.8199
-1.08685 -6.0039101 -1049.01
-3.5067101 -5.9942298 -1048.25
-4.4204702 -5.93332 -1048.05
-5.1094398 -5.55374 -1048.03
-6.0086098 -6.0522799 -1047.85
-6.8530898 -6.1106601 -1046.98
-10.9706 -6.62009 -1045.39
-12.2734 -6.5425701 -1044.48
31.8001 -13.9605 -1045.39
31.1413 -13.8553 -1045.39
29.8943 -13.3873 -1045.89
29.2285 -12.9762 -1046.22
27.9688 -12.2912 -1046.98
27.318199 -11.9928 -1047.26
26.6287 -11.947 -1047.2
26.0912 -11.7252 -1047.38
25.4629 -11.5827 -1047.4301
24.997101 -11.2586 -1047.76
24.4128 -11.1755 -1047.78
23.705299 -11.0141 -1047.83
23.1971 -10.5835 -1048.37
22.5945 -10.5145 -1048.28
22.0068 -10.1419 -1048.6899
20.7955 -9.9253798 -1048.77
20.153099 -9.6682396 -1048.87
19.749399 -9.4743996 -1049.15
19.116199 -9.2904701 -1049.3101
18.5158 -9.0960703 -1049.35
17.310801 -8.7309904 -1049.63
16.615299 -8.8164396 -1049.39
16.138201 -8.5374804 -1049.62
14.7905 -8.2718801 -1049.47
13.8407 -8.26266 -1049.45
12.3892 -7.5467501 -1050.01
11.1657 -7.5187702 -1049.78
10.5454 -7.4668002 -1049.78
9.4778404 -7.20715 -1049.84
8.0623503 -6.8517499 -1049.91
7.5820899 -6.7666001 -1049.63
6.9582801 -6.7832298 -1049.77
5.91818 -6.4881902 -1049.86
3.2272 -6.33319 -1049.39
1.77649 -5.9500999 -1049.0699
-10.8004 -5.8948698 -1045.03
31.2145 -13.298 -1045.3101
30.5065 -13.0894 -1045.49
29.853701 -12.9428 -1045.53
29.2894 -12.5044 -1046.04
28.6898 -12.1973 -1046.4
28.111601 -11.9663 -1046.58
27.3361 -11.6229 -1046.9399
26.7279 -11.401 -1047.1
26.1663 -11.1855 -1047.26
25.7258 -11.1211 -1047.2
24.989 -10.7991 -1047.51
24.467699 -10.6327 -1047.62
23.869801 -10.3365 -1048.02
23.290899 -10.2151 -1047.92
22.6912 -10.0132 -1048.0699
22.108 -9.81985 -1048.22
21.4268 -9.5788002 -1048.52
20.866301 -9.38556 -1048.71
20.3545 -9.1548204 -1048.88
19.7864 -9.0105 -1048.98
19.2026 -8.7982197 -1049.1801
18.582701 -8.5602703 -1049.13
17.939199 -8.5480003 -1049.24
17.379499 -8.2554903 -1049.49
16.7624 -8.15417 -1049.46
15.0816 -7.8565998 -1049.52
13.5846 -7.38239 -1049.47
11.4317 -6.9065599 -1049.5699
9.7733202 -6.5755 -1049.58
8.1368399 -6.3106999 -1049.84
6.9945102 -6.2651701 -1049.63
4.4757099 -5.7354398 -1049.24
3.87167 -5.7420001 -1049.51
3.3006599 -5.7737699 -1049.3199
2.8180201 -5.1630201 -1049.17
1.76456 -5.13275 -1048.95
1.26987 -5.4764099 -1049.15
0.65783697 -5.5630202 -1048.9
0.217834 -5.1101699 -1048.51
-1.1523401 -5.3077698 -1048.17
-2.27332 -5.1231999 -1048.0601
-3.7616601 -4.9955101 -1047.79
-6.8461299 -4.7930598 -1046.86
31.184401 -13.0083 -1044.9
30.6029 -12.6055 -1045.33
29.9813 -12.3281 -1045.5699
28.687099 -11.6916 -1046.17
28.129299 -11.4441 -1046.39
27.3741 -11.2159 -1046.59
26.8757 -10.8566 -1047.03
26.135201 -10.855 -1046.79
25.6716 -10.5117 -1047.13
24.983101 -10.4998 -1047.15
24.435699 -10.1725 -1047.5
23.911699 -9.8569298 -1047.85
23.3214 -9.6122398 -1048.0699
22.630501 -9.5781603 -1047.96
22.059 -9.2719402 -1048.23
21.5149 -9.0478497 -1048.46
20.925501 -8.8846998 -1048.55
20.344 -8.7902498 -1048.58
19.8055 -8.6252098 -1048.6899
19.146299 -8.5726004 -1048.61
18.666401 -8.2193604 -1049.01
18.0735 -7.98282 -1049.1801
17.566 -7.7804899 -1049.08
17.0123 -7.65414 -1049.11
16.256901 -7.5668898 -1049.36
15.0756 -7.4197402 -1049.25
14.1554 -7.0064998 -1049.51
13.709 -6.9014602 -1049.27
13.0781 -6.2786899 -1049.47
12.4814 -6.6719398 -1049.6801
11.3946 -6.38486 -1049.77
10.8221 -6.3121901 -1049.74
8.1975403 -5.8158898 -1049.76
7.0376301 -5.7551599 -1049.5601
6.1167002 -5.4254498 -1049.3101
3.4514799 -5.0268898 -1049.0601
0.95165998 -4.92944 -1048.42
0.357941 -4.5408902 -1048.45
-0.76861602 -4.58002 -1048.08
-1.8092999 -4.62778 -1047.72
-3.3958099 -4.3692899 -1047.9
-4.2564702 -4.3454299 -1047.6899
-6.9058499 -4.5339098 -1046.33
-7.29321 -4.4074998 -1046.38
-14.4351 -5.3432298 -1042.72
33.137798 -13.3545 -1043.8199
32.5868 -12.8759 -1044.35
31.847401 -12.5993 -1044.63
31.340401 -12.3014 -1044.96
30.679001 -12.0307 -1045.1
30.0793 -11.6805 -1045.58
29.377001 -11.5314 -1045.7
28.7906 -11.2129 -1046.03
28.1099 -10.9023 -1046.28
27.6049 -10.7239 -1046.3199
26.933399 -10.4646 -1046.7
26.264799 -10.3224 -1046.75
25.812099 -9.9190998 -1047.26
25.105101 -9.8850403 -1047.17
24.5359 -9.5827303 -1047.45
23.991301 -9.2743797 -1047.74
23.3578 -9.1188402 -1047.8199
22.7663 -8.9228497 -1047.79
22.135599 -8.7571096 -1048.11
21.7535 -8.6516705 -1047.91
20.8972 -8.5688496 -1048.1
19.8325 -8.1012297 -1048.49
19.3661 -7.8429599 -1048.72
18.818199 -7.5946398 -1048.98
18.0763 -7.61871 -1048.77
17.504 -7.31952 -1049.12
16.9464 -7.0009198 -1049.0601
14.7426 -6.6170702 -1049.46
14.2337 -6.4504399 -1049.49
12.5648 -6.0159602 -1049.3101
11.3787 -5.5947599 -1049.15
10.7964 -5.9772301 -1049.33
9.9267597 -5.5670199 -1049.1899
9.3618803 -5.3952899 -1049.29
4.21069 -4.7066302 -1048.8
1.6778001 -4.1601 -1048.86
0.42108199 -4.0474501 -1048.29
-0.75512701 -4.1801801 -1047.78
-1.76843 -4.2045298 -1047.46
-2.5903299 -3.84448 -1047.73
-3.1174901 -4.0343299 -1047.53
-5.2609301 -3.6786499 -1047.2
-6.7026701 -3.9516001 -1046.3199
-7.3636498 -3.8236101 -1046.42
32.023602 -12.1126 -1044.34
31.4195 -11.7238 -1044.9
30.715799 -11.5718 -1045.01
30.1726 -11.1665 -1045.47
29.5392 -10.8442 -1045.8101
28.766199 -10.8358 -1045.67
28.1493 -10.4808 -1046.01
27.5839 -10.1633 -1046.39
26.9855 -9.8789396 -1046.4301
26.3633 -9.6668701 -1046.65
25.7868 -9.5807505 -1046.84
25.267799 -9.2041302 -1047.25
24.6737 -8.9843798 -1047.42
24.0651 -8.7621803 -1047.6
23.414101 -8.6170998 -1047.67
22.828699 -8.3951101 -1047.89
22.2703 -8.2136202 -1047.72
21.617001 -8.0327501 -1048.09
21.146999 -7.8611798 -1047.92
20.5061 -7.6703501 -1048.41
19.8608 -7.6960402 -1048.22
19.404499 -7.3796101 -1048.55
18.882799 -7.1145 -1048.8199
18.198799 -7.0794101 -1048.71
17.0026 -6.4826999 -1048.92
16.4261 -6.4731102 -1049.22
13.7504 -5.8218398 -1049.4399
12.6323 -5.4683199 -1049.14
10.9857 -5.2677002 -1049.46
9.8360596 -5.1991601 -1049.33
8.7959604 -4.9169002 -1049.42
7.7920499 -4.6585102 -1049.53
6.8014498 -4.0718398 -1049.26
6.1379399 -4.2506099 -1049.09
5.6550899 -3.91852 -1049.15
4.4425998 -4.18402 -1048.36
3.44754 -4.0430298 -1048.23
2.06738 -3.9138801 -1048.3
0.46331799 -3.5683601 -1048.08
-0.68130499 -3.6991301 -1047.58
-1.64072 -3.63715 -1047.4
-3.6904299 -3.4517801 -1047.1
-4.78864 -3.1621699 -1047.17
-8.0734596 -3.44736 -1045.62
-10.6543 -3.6949501 -1044.4301
-11.9972 -3.69995 -1044.01
-13.0593 -3.9258101 -1043.3101
32.5396 -11.8715 -1044
32.082901 -11.4704 -1044.54
31.4641 -11.2005 -1044.74
30.8116 -10.9707 -1044.96
30.2045 -10.6462 -1045.25
29.485901 -10.5451 -1045.3101
28.926399 -10.1946 -1045.7
28.2934 -9.8308697 -1046.0601
27.73 -9.6433096 -1045.96
26.9599 -9.5461102 -1046.1801
26.361099 -9.3156099 -1046.42
25.880199 -8.9582195 -1046.8199
24.7661 -8.5421104 -1046.88
24.0952 -8.3104601 -1047.36
23.373301 -8.3041401 -1047.23
23.0156 -7.9348402 -1047.33
22.384199 -7.7240901 -1047.51
21.031 -7.4869399 -1047.88
20.5457 -7.1977801 -1048.17
18.9328 -6.6051898 -1048.6
18.3612 -6.4509902 -1048.72
17.625 -6.48386 -1048.55
14.3877 -5.3660002 -1048.8
12.1321 -4.91541 -1049.4
11.5851 -4.3473501 -1049.15
10.4504 -4.4766202 -1049.08
10.0851 -4.46106 -1048.92
8.8956604 -3.87396 -1049.08
8.3945904 -4.1384001 -1048.95
7.89642 -3.7874501 -1048.91
5.3446999 -3.2578399 -1048.95
4.6345201 -3.6281099 -1048.6
3.2913799 -3.5402801 -1048.21
1.7349499 -2.91046 -1048.41
1.98022 -3.32693 -1047.89
0.98767102 -3.1521599 -1047.88
0.54016101 -3.0181601 -1047.91
-0.56256098 -3.0847499 -1047.53
-1.9564199 -2.9164701 -1047.3199
-2.95172 -3.0649099 -1047.0601
-4.6626902 -2.58673 -1047.03
-8.9907799 -3.13025 -1044.9
-10.5511 -3.08951 -1044.36
-15.2401 -3.7323301 -1041.88
-16.129 -3.8085599 -1041.45
-16.686501 -3.7800901 -1041.29
32.585201 -11.4007 -1043.72
32.048599 -10.98 -1044.0601
31.516199 -10.7062 -1044.46
30.9403 -10.3501 -1044.83
30.239901 -10.2315 -1044.91
29.570999 -9.9208097 -1045.22
28.994101 -9.5959797 -1045.5601
28.329901 -9.3644695 -1045.78
27.6609 -9.1750498 -1045.91
27.187401 -8.8935204 -1045.99
26.548599 -8.6464195 -1046.22
25.990499 -8.3621197 -1046.75
25.3503 -8.21381 -1046.83
24.7341 -7.9774799 -1046.79
24.058701 -7.6875601 -1047.03
23.4727 -7.7144799 -1047.16
21.714001 -7.00769 -1047.72
21.1931 -6.7741699 -1047.96
20.623899 -6.62042 -1048.02
20.0996 -6.4671302 -1048.15
19.478901 -6.3561101 -1048.12
18.966 -6.1242099 -1048.36
17.1576 -5.7851 -1048.45
15.5738 -5.2143202 -1048.38
15.0153 -5.0791602 -1048.45
14.4 -4.81738 -1048.66
13.8795 -4.8069201 -1049
13.2708 -4.6535001 -1049.0601
12.6932 -4.5638099 -1049.0601
8.8912001 -3.4762599 -1048.72
7.0741 -3.5590501 -1048.4
4.6423602 -2.99997 -1048.15
3.23682 -2.9849501 -1048.08
2.1004601 -2.7930601 -1048.03
1.03534 -2.6677599 -1047.64
0.62265003 -2.4692099 -1047.78
-3.08759 -2.5797701 -1046.53
-5.4331102 -2.5427899 -1046
-8.0057096 -2.4758301 -1045.12
-15.1434 -3.2021201 -1041.6801
-18.2493 -3.2049899 -1040.64
32.7201 -10.7454 -1043.66
32.106899 -10.518 -1043.91
30.3829 -9.7677898 -1044.59
29.5243 -9.6034498 -1044.7
29.067101 -9.0237398 -1045.4
28.302401 -9.0068398 -1045.35
27.733801 -8.6328697 -1045.71
26.5208 -8.2187796 -1046.09
26.0291 -7.83426 -1046.5
25.3937 -7.7200298 -1046.4399
24.8104 -7.4531598 -1046.8101
24.1476 -7.2385302 -1046.83
23.532101 -7.1626601 -1046.96
22.961399 -6.8978601 -1047.21
22.348499 -6.6949201 -1047.35
21.765499 -6.5096998 -1047.49
21.2404 -6.2700801 -1047.72
20.6625 -6.138 -1047.78
20.249901 -6.05444 -1047.5601
19.5765 -5.81073 -1047.75
19.010201 -5.58957 -1048.13
18.3839 -5.57971 -1048.04
17.882 -5.31955 -1047.97
17.2731 -5.1626301 -1048.3101
16.7321 -4.95087 -1048.49
16.206499 -4.8987398 -1048.15
15.0351 -4.6435499 -1048.53
13.9742 -4.22574 -1048.5699
13.379 -4.05792 -1048.6801
12.7639 -4.0602999 -1048.8101
11.0673 -3.8576701 -1048.7
10.0806 -3.53931 -1048.87
9.5685396 -3.3179901 -1048.66
8.9807997 -3.05371 -1048.36
8.5383902 -3.2175901 -1048.49
5.7862501 -2.7602501 -1048.37
2.2511001 -2.13287 -1047.78
-0.30847201 -2.25476 -1047.22
-1.87543 -2.1099899 -1046.9301
-3.0015299 -2.0158999 -1046.39
-5.5211201 -1.89044 -1045.77
-6.48032 -1.9397 -1045.4
-15.213 -2.6449001 -1041.65
-16.354601 -2.7046199 -1041.03
-18.1812 -2.72104 -1040.3199
-18.5151 -3.1021399 -1039.85
32.8685 -10.3096 -1043.47
32.264999 -9.8766804 -1043.85
31.545799 -9.7405396 -1044
30.902599 -9.4258099 -1044.3
30.3993 -9.0573101 -1044.63
29.7647 -8.7558603 -1044.99
29.041201 -8.67239 -1044.97
28.4541 -8.2782898 -1045.41
27.8787 -7.9712501 -1045.74
27.167101 -7.9502001 -1045.6
26.5765 -7.6476402 -1045.92
26.125 -7.2105098 -1046.41
25.4389 -7.1602502 -1046.35
24.833799 -6.9675002 -1046.54
24.232201 -6.7753 -1046.67
23.6406 -6.5531301 -1046.79
23.0483 -6.3342299 -1046.96
22.410999 -6.1660199 -1047.12
21.855499 -5.9158902 -1047.39
21.252501 -5.81036 -1047.37
20.807199 -5.6908898 -1047.37
20.177401 -5.4718599 -1047.53
19.635599 -5.2182598 -1047.86
18.9764 -5.22333 -1047.6801
18.4741 -4.99191 -1047.91
17.841499 -4.8958998 -1047.9399
17.3633 -4.6138301 -1048.2
16.7654 -4.54739 -1047.98
15.5928 -4.35358 -1048.15
15.0755 -4.1859698 -1048.25
14.5973 -3.9896901 -1048.38
14.0672 -3.8027301 -1048.5601
13.4901 -3.6296999 -1048.67
12.7937 -3.7265301 -1048.33
11.7708 -3.2829599 -1048.66
11.2644 -3.22995 -1048.65
9.6276903 -3.01984 -1048.59
8.62778 -2.76913 -1048.59
7.21735 -2.6881399 -1047.95
6.56635 -2.5159299 -1048.03
5.8681002 -2.44806 -1048.29
4.7216802 -2.4728999 -1047.96
1.30383 -1.90488 -1047.35
0.768677 -1.84384 -1047.28
-1.7967499 -1.6325999 -1046.75
-4.0057402 -1.54022 -1046.75
-7.7681899 -1.6636 -1044.78
-15.1404 -2.1984899 -1041.47
-16.248301 -2.15729 -1040.92
-17.5882 -2.1041601 -1040.54
-18.348801 -2.1974499 -1040.4
32.8358 -9.7635803 -1043.22
32.328899 -9.3955097 -1043.65
31.6071 -9.2609596 -1043.8199
31.0499 -8.9315205 -1044.1
29.818199 -8.2430696 -1044.79
28.502701 -7.9108601 -1045.12
27.900499 -7.5255098 -1045.48
27.252199 -7.36234 -1045.54
26.5536 -7.3046899 -1045.49
26.031799 -6.9822998 -1045.84
25.5847 -6.5570998 -1046.39
24.3069 -6.2581801 -1046.51
23.6796 -6.0943599 -1046.64
23.1087 -5.8101201 -1046.91
22.489201 -5.62076 -1047.01
21.9067 -5.47119 -1047.13
21.3267 -5.2731299 -1047.24
20.8202 -5.14255 -1047.25
20.2582 -4.8902602 -1047.54
19.131201 -4.5640898 -1047.75
17.962299 -4.2627902 -1047.91
16.8755 -4.0713201 -1047.78
16.260401 -3.89236 -1047.89
15.0948 -3.7500601 -1048.01
14.6297 -3.57336 -1048.11
14.0993 -3.3905301 -1048.2
12.9142 -3.2664499 -1048.12
11.7694 -2.9927101 -1048.14
10.8394 -2.63449 -1048.41
10.2726 -2.59781 -1048.12
9.8923302 -2.6373 -1047.97
9.1560698 -2.4781201 -1048.22
8.6950998 -2.29913 -1048.37
7.5493798 -2.0772099 -1048.09
5.96875 -1.90668 -1048.2
4.4066801 -1.7689199 -1048
3.93872 -1.65576 -1047.65
2.3445101 -1.15329 -1047.41
0.79235798 -1.35123 -1047.55
-2.8547101 -0.97552502 -1046.17
-7.8068199 -1.0841399 -1044.74
-15.1111 -1.68692 -1041.3199
32.873402 -9.2342501 -1043.13
32.378399 -8.9355803 -1043.46
31.7806 -8.6890297 -1043.67
31.0294 -8.5783396 -1043.71
30.4914 -8.14746 -1044.22
29.8825 -7.8010302 -1044.61
29.204901 -7.6220698 -1044.72
28.024 -7.2146602 -1045.13
27.384399 -6.7455702 -1045.58
26.7878 -6.5349698 -1045.75
26.123699 -6.4481802 -1045.76
25.5427 -6.2484698 -1045.96
24.892799 -6.0802898 -1046.04
24.3654 -5.8129301 -1046.28
23.6413 -5.5027199 -1046.5699
23.156 -5.3647799 -1046.72
22.642599 -5.2189898 -1046.7
20.8601 -4.59201 -1047.33
20.314899 -4.4271202 -1047.38
19.7283 -4.2730098 -1047.47
19.1357 -4.1914401 -1047.47
18.583599 -3.9902 -1047.59
17.4618 -3.6602199 -1047.8
16.8682 -3.5246899 -1047.86
16.284201 -3.39835 -1047.87
15.1443 -3.2442901 -1047.8199
14.6979 -3.04794 -1047.8
14.1671 -2.9312699 -1048.08
13.5529 -2.8796699 -1047.95
13.0599 -2.7151201 -1048.0699
11.91 -2.4772301 -1048.1
10.2883 -2.1375699 -1048.17
9.2652302 -1.97284 -1048.14
7.55023 -1.84393 -1047.9
7.4727502 -1.56012 -1047.42
6.37567 -1.8108799 -1047.62
5.9836998 -1.50992 -1047.9399
3.9291699 -1.2778 -1047.6801
3.4233999 -1.07257 -1047.45
-0.19165 -0.74639899 -1046.8199
-2.69031 -0.32452399 -1046.27
-15.0221 -1.21582 -1041.13
-16.0989 -1.2765501 -1040.5
-16.6201 -1.17511 -1040.6899
32.9328 -8.72995 -1042.96
32.4104 -8.5092201 -1043.16
31.9058 -8.0886497 -1043.6899
29.876801 -7.3700299 -1044.3199
29.265499 -7.1090698 -1044.5699
28.6833 -6.6992798 -1045.04
27.416901 -6.3464999 -1045.3199
26.839899 -6.02139 -1045.62
25.666 -5.6482201 -1045.91
25.083401 -5.3668499 -1046.22
24.4133 -5.3070998 -1046.1801
23.816799 -5.0651898 -1046.38
23.2742 -4.8933101 -1046.39
22.645201 -4.6344299 -1046.78
22.0277 -4.4794302 -1046.85
21.4153 -4.3652301 -1046.85
20.351999 -3.9474499 -1047.01
19.812401 -3.8155501 -1047.08
19.1558 -3.7409101 -1047.23
17.4727 -3.2778001 -1047.53
15.8089 -2.8056901 -1047.78
15.4393 -2.7456999 -1047.48
14.7857 -2.54684 -1047.6
13.7063 -2.2832601 -1047.99
13.1238 -2.1958001 -1047.97
12.5927 -2.0822101 -1047.7
11.9269 -2.05704 -1047.86
10.376 -1.6488 -1048.05
7.5399799 -0.97827101 -1047.89
6.58322 -1.12946 -1047.8
4.1423302 -0.74276698 -1047.22
2.4762299 -0.186859 -1047.14
1.5265501 -0.45098901 -1046.84
0.85790998 -0.46868899 -1047.1
-1.59753 -0.253784 -1046.67
-2.70279 0.025238 -1045.9399
-7.6143799 0.151917 -1044.5601
-10.1574 -0.026489301 -1043.48
-16.443899 -0.72171003 -1040.3101
32.913799 -8.4327402 -1042.51
32.515598 -7.8983498 -1043.17
31.823999 -7.79037 -1043.23
31.1721 -7.5960102 -1043.41
30.550501 -7.2893701 -1043.71
29.9877 -6.9728999 -1044.03
29.3379 -6.66293 -1044.3
28.719101 -6.2361102 -1044.79
28.0257 -6.1745601 -1044.8
27.513 -5.78336 -1045.29
26.929001 -5.7118502 -1045.17
26.232201 -5.5471802 -1045.36
25.730499 -5.24088 -1045.54
25.128 -4.94485 -1046
24.513201 -4.7629399 -1046.09
23.910601 -4.5472398 -1046.3
22.7684 -4.2232699 -1046.34
22.094299 -4.0060701 -1046.6801
20.963699 -3.6380601 -1046.9399
19.834101 -3.39432 -1047.0601
19.3015 -3.15201 -1047.28
18.7374 -2.9612401 -1047.36
18.1646 -2.8024001 -1047.46
16.3799 -2.5014601 -1047.49
15.8857 -2.29456 -1047.67
15.288 -2.28284 -1047.54
12.0101 -1.57285 -1047.72
10.9538 -1.26413 -1047.92
9.8648701 -1.1401401 -1047.8
7.7492099 -0.40573099 -1047.4301
5.0130901 -0.124237 -1047.1
3.53918 -0.26535001 -1047.3101
2.5246 0.30423 -1046.97
1.58099 0.0673218 -1046.67
-0.110291 0.48623699 -1046.45
-1.55414 0.56787097 -1046.1801
-2.5766001 0.43432599 -1045.91
-3.10919 0.34805301 -1046.26
-7.6052198 0.54727203 -1044.26
-10.1086 0.445862 -1043.3
32.5704 -7.4179702 -1042.98
31.8745 -7.2459998 -1043.04
31.2731 -6.9679899 -1043.3199
30.6481 -6.72119 -1043.61
30.056 -6.4369798 -1043.84
29.504 -6.2178602 -1044.03
28.888901 -5.9595299 -1044.27
26.965599 -5.1942401 -1045.01
26.360701 -4.9188499 -1045.36
25.149099 -4.5461102 -1045.6899
24.559799 -4.3079801 -1045.86
23.9942 -4.0192299 -1046.15
23.396 -3.7730999 -1046.39
22.1996 -3.43839 -1046.63
21.6141 -3.29248 -1046.46
21.069099 -3.0757401 -1046.88
20.5154 -2.9309101 -1046.96
19.928699 -2.78036 -1046.73
19.348301 -2.6554301 -1047.05
18.819201 -2.4946001 -1047.2
18.2304 -2.32462 -1047.28
16.6091 -1.93066 -1047.11
16.069901 -1.83578 -1047.13
15.4012 -1.62436 -1047.27
14.8896 -1.56302 -1047.59
14.3599 -1.40201 -1047.28
13.2195 -1.23349 -1047.6
12.6856 -1.09039 -1047.67
11.4894 -1.0302401 -1047.55
9.86761 -0.72006202 -1047.51
7.76755 0.0291443 -1047.16
6.3955102 0.0038147001 -1047.09
5.0910301 0.41943401 -1047.02
3.5660999 0.506073 -1047
2.4429901 0.53005999 -1046.45
1.0498 0.718445 -1046.5
0.0812378 0.75543201 -1046.25
-1.5158401 1.01526 -1045.95
-2.6688499 0.88162202 -1045.45
-3.0512099 1.306 -1045.91
-4.0770898 1.28467 -1045.53
-6.4033799 0.83654797 -1044.28
33.0765 -7.3941698 -1042.26
32.600399 -6.9692101 -1042.74
32.019402 -6.71735 -1042.99
31.368299 -6.4472399 -1043.25
30.664499 -6.3225398 -1043.29
30.1106 -5.8698101 -1043.84
29.493 -5.6434598 -1043.91
28.7857 -5.43082 -1044.25
28.180901 -5.1090398 -1044.58
27.645399 -4.83636 -1044.86
27.019899 -4.6273799 -1045.04
26.520201 -4.28125 -1045.42
25.868401 -4.19485 -1045.46
25.1803 -3.92819 -1045.41
24.5965 -3.87076 -1045.61
24.0508 -3.55832 -1045.9301
23.396099 -3.31284 -1045.9
22.847601 -3.1242099 -1046.3199
22.2377 -2.9584401 -1046.42
21.6796 -2.7859499 -1046.52
21.034 -2.76001 -1046.46
20.514601 -2.5313699 -1046.62
19.972 -2.2595201 -1046.55
19.386801 -2.0743699 -1046.66
18.847401 -2.00336 -1046.97
18.274401 -1.8583699 -1047.09
17.6703 -1.78705 -1047.03
17.1052 -1.57925 -1047.1801
16.0084 -1.1842 -1047.0601
15.578 -1.15491 -1047
14.4131 -0.94116199 -1047.46
12.8193 -0.53204298 -1047.14
11.5833 -0.43374601 -1047.48
10.5245 0.13555899 -1047.13
7.9135098 0.406921 -1047.14
6.7178302 0.65206897 -1046.9
5.2105098 0.85266101 -1047.02
2.55862 1.14713 -1046.39
1.2962 1.0899 -1046.12
-0.0162354 1.3696001 -1046.02
-0.72656298 1.20709 -1045.67
-2.6352201 1.39917 -1045.25
-3.9569099 1.8348401 -1045.45
-5.5187998 1.59097 -1044.61
-7.4293799 1.61227 -1044.04
-8.9909401 1.51651 -1043.39
-10.3298 1.2647099 -1042.5699
-11.3861 1.32706 -1042.36
-16.216 0.71212798 -1039.6801
33.203602 -6.7557702 -1042.24
32.5037 -6.3907199 -1042.49
31.452999 -5.9270301 -1043.11
30.790199 -5.6705599 -1043.1801
30.1485 -5.4278302 -1043.5699
29.4501 -5.2845502 -1043.62
29.037001 -4.9242601 -1043.87
28.2341 -4.6172199 -1044.33
27.702801 -4.32095 -1044.66
26.992701 -4.2852802 -1044.5699
25.910299 -3.67944 -1045.22
25.2458 -3.5560601 -1045.3
24.6418 -3.2014201 -1045.38
24.1397 -3.0220599 -1045.47
23.530701 -2.8250401 -1045.99
22.8904 -2.65588 -1046.1
22.3062 -2.4918499 -1046.2
21.742599 -2.28952 -1046.34
21.1574 -2.17731 -1046.42
20.697001 -1.96805 -1046.21
20.104099 -1.74496 -1046.75
19.504601 -1.61307 -1046.8199
18.955099 -1.42804 -1046.92
18.290701 -1.44086 -1046.77
17.151899 -1.08337 -1046.98
15.5074 -0.75009203 -1047.1
12.2309 -0.0079345703 -1047.3101
11.7368 0.246246 -1047.03
11.1351 0.22323599 -1047.37
10.5698 0.64141798 -1046.88
10.1199 0.87261999 -1047.08
9.6237803 0.63510102 -1046.99
7.98419 0.92752099 -1046.97
6.9057002 1.10107 -1046.9
5.1912198 1.43466 -1046.5699
2.37854 1.51736 -1046.15
1.16608 2.02423 -1046.26
0.098693803 2.0204501 -1045.97
-0.91619903 2.0039999 -1045.62
-1.26038 2.2482901 -1045.85
-2.99719 2.30948 -1045.5
-3.3909299 2.01846 -1045.15
-5.8371 1.9628 -1044.1801
-17.1194 1.17996 -1039.0699
-17.5009 0.952057 -1038.59
33.348499 -6.2416101 -1041.98
32.708302 -5.96875 -1042.29
32.105499 -5.74753 -1042.47
31.512899 -5.4404602 -1042.67
30.821501 -5.2944598 -1042.88
30.1584 -5.01718 -1043.16
29.598101 -4.5992398 -1043.66
28.9554 -4.3136601 -1043.92
28.273399 -4.1521301 -1044.02
27.6999 -3.8903201 -1044.3199
26.018101 -3.0973799 -1045.1
25.378599 -2.90747 -1045.24
24.0959 -2.6415701 -1045.37
23.550301 -2.4087501 -1045.61
22.912001 -2.19681 -1045.72
22.311199 -2.02634 -1045.87
21.798599 -1.79715 -1046.13
21.26 -1.60461 -1046.26
20.7257 -1.43011 -1046.04
19.533199 -1.06128 -1046.28
18.9846 -0.98690802 -1046.63
18.3587 -0.87374902 -1046.58
17.7971 -0.744995 -1046.7
17.2146 -0.58755499 -1046.76
15.6863 -0.10672 -1046.64
14.477 -0.0256653 -1046.88
13.9878 0.164856 -1047.05
13.4581 0.39498901 -1046.78
