# .PCD v0.7 - Point Cloud Data file format
VERSION 0.7
FIELDS x y z
SIZE 4 4 4
TYPE F F F
COUNT 1 1 1
WIDTH 1583
HEIGHT 1
VIEWPOINT 0 0 0 1 0 0 0
POINTS 1583
DATA ascii
14.6163 -30.599199 -962.112
-36.8125 -28.327499 -1004.26
-35.6703 -28.0718 -997.763
-35.477501 -28.181 -996.552
-34.9991 -28.216 -995.89203
-32.550098 -28.1915 -989.37
-31.554701 -28.2153 -988.07001
-31.0247 -28.1798 -986.03601
-30.4617 -28.198299 -985.51599
-30.191999 -28.193199 -984.54498
-29.2957 -28.2052 -982.888
-28.999599 -28.193899 -981.93799
-28.8915 -28.179399 -981.15503
-28.242901 -28.218201 -980.62097
-27.937599 -28.184999 -979.94501
-27.3899 -28.2136 -979.77301
-22.9669 -28.3529 -975.14301
-19.600201 -28.505301 -972.67603
-18.360701 -28.5536 -971.11298
-15.4928 -28.653299 -969.49402
-14.1283 -28.685101 -968.54498
-10.4219 -29.0499 -966.84003
-5.5466299 -29.0114 -964.20898
-5.1146202 -29.044399 -963.96198
-3.35583 -29.197201 -963.62299
1.74261 -29.6588 -962.41901
2.5748899 -29.3316 -962.11298
4.6078501 -29.3062 -962.146
5.4079599 -29.588699 -962.06299
7.6366601 -29.728001 -961.961
8.6511803 -29.755301 -961.82599
9.7590904 -29.848 -961.96997
18.100599 -30.5952 -962.40302
-36.780201 -27.930401 -1004.71
-36.601799 -27.7738 -1002.52
-36.5975 -27.6926 -1000.48
-35.603901 -27.5987 -996.96698
-35.2146 -27.641399 -995.38
-34.458199 -27.6572 -993.487
-33.600498 -27.665501 -991.96198
-33.033901 -27.594101 -991.14398
-32.705799 -27.712799 -990.48499
-32.601898 -27.656799 -989.20099
-27.3367 -27.766399 -979.66101
-26.8123 -27.7505 -979.45801
-22.973301 -27.8498 -975.05298
-20.1765 -27.9498 -972.74902
-18.750401 -28.049801 -971.58899
-18.342501 -28.0116 -971.03198
-17.4102 -28.063999 -970.42401
-15.1245 -28.156601 -968.974
-12.0396 -28.3008 -967.492
-1.53253 -28.7572 -962.672
-0.85797101 -28.7945 -962.80298
0.84204102 -28.858299 -962.414
1.85071 -28.9571 -962.49701
6.3156099 -29.132799 -961.61902
9.6022301 -29.59 -961.62201
19.980499 -29.9363 -963.12903
-36.057899 -27.2153 -999.28101
-35.680698 -27.159401 -996.31799
-35.320099 -27.1819 -995.08099
-34.68 -27.205 -994.62903
-34.2967 -27.162701 -993.755
-33.969799 -27.1556 -992.73297
-32.928799 -27.1884 -990.01001
-32.311199 -27.2307 -989.54602
-32.082901 -27.180799 -988.448
-31.543301 -27.1598 -986.41699
-30.7668 -27.218201 -986.24902
-29.907499 -27.185301 -983.53198
-29.3491 -27.238701 -982.95502
-28.8318 -27.15 -980.84698
-27.841101 -27.433599 -979.75598
-27.4142 -27.212601 -979.34302
-25.83 -27.4704 -978.54102
-22.4557 -27.391701 -974.59601
-19.6668 -27.482901 -972.367
-19.300301 -27.5142 -971.82202
-16.2966 -27.821501 -970.04498
-13.5632 -27.753401 -968.16699
-11.7328 -27.801001 -966.914
-4.8692598 -28.108101 -964.14001
-4.0607901 -28.117701 -963.52502
-3.6723599 -28.177601 -963.38098
-2.8660901 -28.214399 -963.31403
-1.62915 -28.245899 -962.51501
-0.129089 -28.123199 -962.146
1.1056499 -28.420799 -962.20801
6.4794898 -28.6978 -961.76898
9.4544697 -29.0457 -961.38
10.8226 -28.921801 -961.72601
-36.9617 -26.7248 -1003.68
-36.4188 -26.775801 -1002.47
-36.379601 -26.6681 -1000.59
-36.067101 -26.668699 -999.27399
-35.307598 -26.6639 -996.99799
-35.081501 -26.704399 -995.651
-34.274502 -26.638201 -993.79901
-33.8279 -26.6499 -992.935
-33.050499 -26.6868 -991.14099
-32.632801 -26.6998 -989.078
-31.794201 -26.674999 -987.409
-31.3634 -26.6376 -986.85101
-29.0109 -26.7087 -982.14203
-28.520599 -26.7066 -981.453
-27.7579 -26.705299 -979.90503
-26.870399 -26.7416 -979.02301
-25.1343 -26.5826 -977.49902
-24.262501 -26.7994 -976.35797
-19.8277 -26.9377 -972.02502
-19.183001 -27.0243 -971.92798
-17.0502 -27.0648 -969.78998
-13.79 -27.164499 -967.72699
-12.5212 -27.2721 -967.57898
-10.7969 -27.327801 -966.39203
-8.89081 -27.4571 -965.43201
-8.3946505 -27.435801 -965.17297
-7.3141499 -27.501699 -964.84302
-6.2890601 -27.4566 -964.33801
-0.43487501 -27.818501 -962.57098
7.51086 -28.229099 -961.48901
11.7752 -28.476999 -961.42902
-36.712002 -25.966299 -1002.19
-35.929401 -26.2159 -999.375
-34.849701 -26.143499 -996.211
-34.4613 -26.084801 -993.39398
-33.809101 -26.1278 -992.83899
-33.585899 -26.1229 -991.70599
-33.080898 -26.1318 -990.98199
-32.297901 -26.141199 -989.40198
-32.0662 -26.3822 -988.23199
-31.614 -26.151199 -987.573
-31.2906 -26.134199 -986.66602
-29.9018 -26.0357 -984.60602
-28.8384 -26.2075 -982.54797
-27.792101 -26.174999 -979.85303
-27.328899 -26.190901 -979.26599
-26.903 -26.2064 -978.784
-22.7237 -26.375 -975.17902
-20.486 -26.457899 -972.98901
-19.9811 -26.4813 -972.776
-15.4689 -26.6388 -969.17401
-11.7158 -26.7759 -966.73999
-10.6622 -26.775801 -966.02301
-4.88165 -27.094299 -963.935
-4.04846 -27.110001 -963.33197
1.23785 -27.4179 -962.435
2.1538701 -27.447001 -961.72498
3.2852199 -27.427401 -961.44
5.4003301 -27.612301 -961.64697
12.5085 -28.001699 -961.62299
-36.827999 -25.600401 -1001.63
-35.895802 -25.639299 -999.39398
-35.255901 -25.6369 -997.23102
-34.369099 -25.4548 -993.362
-33.051899 -25.406601 -990.56
-32.7729 -25.5753 -989.97302
-31.3708 -25.6028 -986.41699
-30.932301 -25.570299 -985.68298
-30.510401 -25.59 -984.97699
-29.2554 -25.7188 -982.88397
-27.609301 -25.797701 -980.32599
-26.854799 -25.68 -978.78998
-26.426901 -25.6607 -978.401
-25.541901 -25.721399 -977.58801
-24.432699 -25.799801 -976.45502
-19.129601 -25.9648 -971.81702
-16.402201 -26.0632 -969.578
-15.103 -26.1127 -968.60797
-13.5867 -26.1859 -967.84802
-13.2145 -26.172899 -967.38898
-8.4840097 -26.3843 -964.81897
-3.97931 -26.587099 -963.30902
-2.0058601 -26.527399 -962.76202
-0.43048099 -26.9526 -962.52301
1.22925 -26.868299 -962.33899
4.3867798 -27.159599 -961.46997
6.44275 -27.1322 -961.42401
8.4128399 -27.052299 -961.13202
9.1411104 -27.2742 -961.25598
19.942499 -27.890499 -962.58698
20.4249 -27.921801 -962.60901
-37.148899 -24.9799 -1003.09
-36.468399 -24.933901 -1002.24
-35.666401 -24.9963 -998.08002
-34.391701 -24.9685 -993.33398
-33.886902 -25.025801 -993.21399
-33.474499 -25.017599 -991.64001
-33.0126 -24.959101 -989.46301
-32.528198 -24.954901 -988.80402
-31.408501 -24.962099 -986.35797
-30.093399 -25.0215 -984.12
-28.7666 -25.079399 -982.47699
-27.9459 -25.1173 -981.19299
-26.379299 -25.104799 -978.367
-19.2642 -25.3941 -971.51099
-18.3964 -25.41 -970.47101
-16.9363 -25.4646 -969.66101
-14.9385 -25.5602 -968.74298
-14.6105 -25.554199 -968.21899
-8.1850595 -25.851801 -964.79999
-6.2601299 -25.9573 -964.29199
-4.1307998 -25.944201 -963.41101
0.359741 -26.0683 -962.08801
1.32477 -26.308701 -962.17798
16.0879 -27.2321 -961.46002
19.7985 -27.3006 -962.28302
25.178301 -27.508301 -963.71301
-36.409599 -24.490499 -1002.44
-35.991901 -24.513399 -1001.18
-35.698002 -24.233299 -998.08197
-35.0956 -24.5014 -996.66699
-35.163101 -24.5502 -995.79602
-34.405399 -24.3974 -993.18103
-33.999001 -24.489599 -992.15002
-32.560902 -24.3995 -988.677
-31.253599 -24.4711 -986.40997
-29.988001 -24.4893 -984.151
-27.3395 -24.513599 -979.46997
-25.4573 -24.6056 -977.52399
-23.4153 -24.650499 -974.94702
-20.474701 -24.9571 -972.41699
-19.2068 -24.8232 -971.50201
-18.4736 -24.822001 -970.27502
-14.3627 -25.1241 -967.97498
-11.1858 -25.1609 -966.29999
-9.8828697 -25.198799 -965.44598
-9.3305702 -25.222401 -965.29901
-8.81287 -25.276199 -965.12701
-3.2385299 -25.628099 -963.32703
0.276611 -25.680799 -962.43903
2.3785999 -25.7302 -961.086
3.7567101 -25.862101 -961.56799
4.7340698 -25.920799 -961.25098
6.2575698 -26.005301 -960.914
13.259 -26.526501 -961.133
-36.694801 -24.0998 -1006.32
-36.362598 -23.7295 -1004.07
-36.3578 -23.865299 -1002.68
-36.018398 -23.8584 -1001.27
-35.785198 -23.8526 -999.83002
-34.944599 -23.8456 -995.66101
-34.7253 -23.822701 -994.315
-33.9436 -23.893101 -992.82898
-33.5383 -23.848801 -991.341
-33.431702 -23.646601 -990.34497
-32.744598 -23.8612 -989.69501
-31.007401 -23.8808 -985.30798
-30.4604 -23.8811 -984.70099
-30.025801 -23.885201 -983.87402
-27.656601 -23.6754 -980.27899
-22.341 -24.1441 -974.19202
-20.6731 -24.178101 -972.29199
-19.223101 -24.2281 -971.38501
-14.6138 -24.429001 -968.05103
-10.4823 -24.6812 -965.75201
-9.2470102 -24.656799 -965.30902
-8.7997398 -24.6313 -964.79199
-6.1471601 -24.8442 -963.91998
-1.34149 -25.030701 -962.466
1.19653 -25.1828 -961.97803
2.23456 -25.1982 -961.72601
3.6771901 -25.263201 -961.31097
4.8060298 -25.540501 -961.388
5.8682299 -25.225401 -961.315
6.22504 -25.3892 -960.83301
9.6254301 -25.578501 -960.914
12.9413 -25.755199 -960.96698
16.252199 -25.9632 -961.35901
19.8545 -25.9639 -961.94299
-36.308601 -23.280001 -1002.51
-35.913601 -23.2617 -999.539
-35.4137 -23.266701 -996.53198
-35.066299 -23.441 -995.66901
-34.597198 -23.2955 -994.44299
-33.557301 -23.514799 -991.72101
-33.310902 -23.255199 -990.10699
-32.574799 -23.284201 -988.44397
-32.1731 -23.2868 -987.60901
-31.737 -23.3016 -986.909
-31.351101 -23.3134 -986.052
-31.229 -22.9557 -985.24799
-28.923201 -23.368999 -981.89502
-28.5198 -23.363899 -981.29901
-28.2052 -23.360201 -980.49902
-27.2962 -23.3866 -979.40698
-26.3391 -23.416401 -978.354
-24.215099 -23.502001 -975.84399
-22.7698 -23.578699 -974.573
-22.410601 -23.5648 -973.98901
-21.2988 -23.575899 -972.83698
-19.195601 -23.7257 -971.34399
-14.2785 -23.5504 -967.716
-13.2014 -23.8799 -967.18597
-9.0017099 -24.1035 -964.63501
-4.9070401 -24.3356 -963.38501
-2.4649 -24.441 -962.38599
1.30981 -24.626301 -961.76202
2.2468901 -24.666201 -961.65302
6.8688998 -24.9081 -961.15503
22.3978 -25.9662 -962.87701
-36.608799 -22.9181 -1007.35
-36.507301 -23.081699 -1004.93
-36.098801 -22.828501 -1001.29
-34.8409 -22.7852 -995.64301
-34.729599 -22.740601 -994.16901
-34.342499 -22.784901 -993.07397
-33.943199 -22.783001 -992.05902
-32.818901 -22.767099 -990.20099
-33.0322 -22.7309 -989.05798
-32.019901 -22.818701 -987.78003
-31.884001 -22.6915 -986.71802
-30.6432 -22.636499 -984.32703
-28.866501 -22.889799 -981.95099
-28.5958 -22.859501 -981.099
-27.2878 -22.9025 -979.32001
-26.254601 -23.051399 -978.617
-23.8381 -23.020901 -975.21002
-20.5431 -23.143299 -972.32202
-19.720501 -23.1793 -971.53198
-17.476101 -23.2651 -969.37
-14.953 -23.3841 -968.33502
-12.1146 -23.5112 -966.5
-10.7505 -23.571199 -965.75403
-8.3692598 -23.680401 -964.51599
-5.336 -23.808701 -963.55902
-4.1461201 -23.745001 -962.83301
-0.79266399 -24.0289 -962.26703
3.2209499 -24.194901 -961.29999
4.1567998 -24.2034 -961.34802
5.3463702 -24.324499 -961.21301
6.0473599 -24.185301 -961.185
7.1823702 -24.443701 -961.34802
7.6880498 -24.465099 -961.25299
9.0688496 -24.5233 -960.66302
-36.5359 -22.208401 -1009.9
-36.526901 -22.3699 -1007.31
-36.451599 -22.327101 -1004.83
-36.2201 -22.299801 -1002.92
-35.989799 -22.290701 -1001.35
-35.693298 -22.2787 -999.79199
-35.597801 -22.216299 -997.849
-34.9743 -22.3032 -997.01398
-34.946899 -22.4034 -995.56799
-34.559399 -22.2656 -994.30298
-34.162899 -22.2612 -993.24103
-33.8153 -22.3571 -992.604
-33.597301 -22.253599 -991.00403
-31.6793 -22.275101 -986.77899
-31.3829 -22.261999 -985.83301
-30.8531 -22.2962 -985.27802
-25.9396 -22.452 -977.56702
-25.415001 -22.493 -977.25403
-24.514999 -22.550699 -976.38501
-23.300301 -22.549101 -974.81
-18.645901 -22.7327 -970.90698
-15.1077 -22.8818 -967.995
-11.6432 -23.0326 -966.159
-9.6852999 -23.1492 -965.36298
-5.2846699 -23.3358 -963.547
-0.87481701 -23.5417 -962.073
3.9135101 -23.791 -961.43201
8.9628296 -24.0119 -960.56299
-36.867298 -21.8927 -1012.58
-36.503601 -21.7514 -1004.71
-36.364601 -21.598301 -1002.66
-36.0989 -21.752399 -1001.03
-35.713299 -21.8036 -999.73102
-34.925201 -21.757999 -995.414
-34.2761 -21.640499 -994.07098
-34.295101 -21.6745 -993.27502
-33.382099 -21.5832 -989.896
-32.508999 -21.7614 -988.29999
-20.540199 -22.1616 -972.15997
-19.304199 -22.210699 -970.90503
-18.416401 -22.2649 -969.992
-13.6759 -22.4653 -967.06403
-13.0702 -22.492599 -966.90997
-9.2699604 -22.672899 -964.95599
-8.1987896 -22.7367 -964.59998
-6.6894498 -22.798599 -964.01501
-1.8242199 -23.023899 -962.23499
2.2235701 -23.203899 -961.33801
3.18103 -23.460899 -961.27197
4.20544 -23.303101 -961.02197
7.0288701 -23.3736 -960.88
9.0128202 -23.553801 -960.64398
13.5144 -23.799 -960.79602
15.4771 -23.8151 -961.16998
19.887699 -24.203699 -961.86102
-36.370701 -21.144699 -1010.4
-36.4468 -21.306499 -1007.48
-35.977901 -21.3762 -999.62299
-35.5219 -21.236799 -997.81299
-34.9716 -21.270901 -996.91803
-35.0397 -21.3864 -995.125
-34.240101 -21.2328 -992.93103
-33.369701 -21.0469 -989.74402
-32.6255 -21.255899 -989.51801
-32.0163 -21.2586 -987.57202
-31.345501 -21.2679 -985.73798
-28.0755 -21.3738 -980.37299
-22.753901 -21.5539 -974.27301
-18.6078 -21.749901 -970.80798
-17.055 -21.7698 -968.76898
-16.0091 -21.843201 -968.43201
-15.0581 -21.8876 -967.91101
-14.2549 -21.9837 -967.34003
-13.7106 -21.9298 -966.896
-9.26721 -22.1612 -964.836
-8.9795504 -22.1471 -964.33197
-5.3248901 -22.355499 -963.33801
-3.98102 -22.415001 -962.591
7.0495 -22.956499 -960.93103
9.2299204 -22.834999 -960.73798
18.348801 -23.378599 -961.29999
-36.175701 -20.619699 -1011.16
-35.876999 -20.789 -1003.32
-35.880699 -20.6943 -1001.22
-34.625801 -20.681999 -994.00299
-34.189701 -20.650299 -992.383
-33.5303 -20.725 -990.79901
-32.478901 -20.6929 -988.229
-32.286598 -20.937099 -987.271
-31.7251 -20.738899 -986.55499
-31.3146 -20.745399 -985.71301
-27.711 -20.8444 -979.60303
-26.850201 -20.8827 -978.41498
-26.24 -20.9254 -978.06403
-23.1021 -21.053101 -974.86102
-22.7493 -21.0324 -974.18799
-18.7609 -21.202801 -970.48602
-17.018 -21.258301 -968.68402
-14.0102 -21.4496 -967.38898
-12.3267 -21.490299 -965.854
-11.6588 -21.5296 -965.86902
-10.2537 -21.624201 -965.22601
-9.9490995 -21.5919 -964.71399
-5.19556 -21.7561 -963.31897
-3.4160199 -21.905399 -962.32202
0.58612102 -22.291401 -961.49298
10.765 -22.6245 -960.71997
18.825399 -22.9021 -961.44598
-35.9827 -20.1152 -1000.96
-35.812801 -20.3424 -999.599
-34.988201 -20.186899 -996.75598
-34.883701 -20.3225 -995.05798
-34.034901 -20.1472 -992.50897
-33.766102 -20.178301 -991.87402
-33.217499 -19.885201 -991.22699
-32.542801 -20.1677 -988.06201
-32.0284 -20.194401 -987.37701
-30.656601 -20.2076 -983.83002
-25.8372 -20.418501 -977.38702
-24.063999 -20.4835 -975.59998
-23.146099 -20.521799 -974.685
-22.288799 -20.553301 -973.67401
-18.8745 -20.6472 -970.23901
-12.2588 -20.9338 -965.85303
-11.1888 -21.041901 -965.59497
-10.7007 -21.056999 -965.40503
-10.3354 -21.058599 -965.034
-9.7346201 -21.0903 -964.80902
-8.4039297 -21.143801 -964.01898
-7.3750601 -21.2041 -963.65601
-4.8937402 -21.318399 -962.76001
-4.4802198 -21.320999 -962.41602
-0.38562 -21.5532 -961.57599
0.83129901 -21.6196 -961.63202
9.1609497 -22.030701 -960.58899
11.3471 -22.2729 -960.29498
16.796801 -22.4387 -961.01398
18.6984 -22.5655 -961.50598
19.8482 -22.5219 -961.12903
22.5123 -22.7456 -961.59399
-36.1632 -19.5886 -1002.84
-35.976601 -19.561899 -1000.97
-35.752998 -19.552799 -999.396
-35.5746 -19.5285 -997.74298
-34.835602 -19.694099 -996.58899
-34.8195 -19.802 -995.026
-33.864201 -19.560499 -991.64001
-31.2698 -19.6168 -985.62402
-27.068001 -20.035101 -979.29602
-19.725201 -20.0672 -970.98999
-19.089399 -20.106001 -970.87701
-18.9074 -20.0488 -970.43799
-15.489 -20.240499 -967.98199
-14.1141 -20.317801 -967.08899
-12.7045 -20.3598 -966.11401
-10.3537 -20.476101 -964.88501
-9.6570997 -20.542299 -964.97101
-9.0672598 -20.5858 -964.88599
-8.33148 -20.575399 -964.06097
-6.36096 -20.674299 -963.22998
-1.41626 -20.944 -961.41699
6.8369799 -21.3255 -960.33301
13.0162 -21.6618 -960.59198
17.537201 -21.928499 -961.24597
18.6919 -21.9835 -961.35199
19.728001 -21.995899 -961.08002
-36.361401 -18.9995 -1002.45
-35.853802 -19.0284 -1001.18
-35.774502 -18.989 -999.26801
-35.2542 -19.038401 -998.18799
-34.7873 -19.000099 -995.078
-33.7258 -19.0212 -991.797
-33.2379 -18.775999 -990.849
-33.1436 -19.038601 -989.78998
-32.3596 -19.0492 -988.164
-32.130199 -19.2973 -987.06097
-28.5411 -19.136 -980.59698
-27.8468 -19.212601 -980.41998
-26.5616 -19.2603 -978.59698
-24.3818 -19.33 -976.047
-20.988001 -19.460199 -972.13202
-18.685101 -19.572701 -970.33002
-16.9802 -19.607401 -968.414
-14.1544 -19.7925 -966.888
-13.6212 -19.812799 -966.69098
-10.7009 -19.7047 -965.31299
-10.2947 -19.9468 -964.89697
-9.1605797 -20.026699 -964.685
-5.0257001 -20.1908 -962.27002
1.6246901 -20.518499 -960.677
9.10602 -20.898701 -960.32501
10.6666 -21.0009 -960.31
18.691 -21.419001 -961.14203
-36.010601 -18.5249 -1008.36
-36.049999 -18.441299 -1002.98
-35.825001 -18.468599 -1001.2
-35.7831 -18.374001 -999.211
-35.659401 -18.3472 -997.45502
-34.621201 -18.3526 -993.39502
-34.217602 -18.391199 -992.39203
-33.644901 -18.438 -991.83398
-33.452099 -18.427401 -990.68903
-32.1399 -18.430599 -986.953
-31.509501 -18.432501 -986.90002
-29.533899 -18.5282 -982.68799
-27.946501 -18.712099 -980.30402
-27.650499 -18.5909 -979.35199
-22.3671 -19.0137 -972.98401
-17.8325 -19.017099 -969.35498
-16.3526 -19.0903 -968.31702
-13.7725 -19.195 -966.36401
-5.4665499 -19.594 -962.42297
-3.3696301 -19.624901 -962.00598
6.18115 -20.357401 -960.45801
8.3395395 -20.366301 -960.43201
9.1639404 -20.594601 -960.04901
17.042801 -20.8871 -960.58002
18.539801 -20.792101 -960.65601
-35.8228 -17.939199 -1003.28
-35.852699 -18.033899 -1000.99
-35.1049 -17.821699 -993.69397
-34.655602 -17.8671 -992.92102
-34.134201 -17.864799 -992.32703
-33.088001 -17.8915 -989.69501
-32.618999 -17.9687 -989.14502
-32.324501 -18.124901 -987.98602
-31.8524 -17.921301 -987.38
-31.1569 -17.945601 -985.552
-28.864201 -18.011 -981.18799
-28.4736 -18.0497 -980.539
-27.855 -18.0793 -980.20697
-26.206499 -18.135599 -977.70502
-22.4202 -18.276501 -973.117
-20.599199 -18.4242 -971.48499
-20.1756 -18.3951 -971.09302
-18.8144 -18.443501 -969.98499
-18.213499 -18.4785 -969.80701
-16.337099 -18.608101 -967.84003
-14.6594 -18.603001 -966.96802
-13.7024 -18.6532 -966.37
-6.6503301 -18.9701 -962.354
-5.1290302 -19.067801 -961.94702
-0.328491 -19.3286 -961.185
2.1747401 -19.463499 -960.37903
2.4478099 -19.4046 -959.91803
5.77808 -19.6229 -960.02399
9.1497202 -19.789801 -960.19501
17.2166 -20.1658 -960.51599
18.6343 -20.305799 -960.63202
-35.842999 -17.305599 -1003.2
-35.849602 -17.4883 -1000.83
-35.4758 -17.3626 -999.62598
-35.6511 -17.267599 -994.17499
-34.688801 -17.3337 -992.65601
-34.243698 -17.336201 -991.92798
-33.835701 -17.3437 -991.23602
-33.129902 -17.239901 -990.59998
-32.469002 -17.492701 -989.22302
-32.2192 -17.618401 -988.02301
-32.073898 -17.2108 -987.323
-29.8943 -17.459801 -983.27002
-20.8333 -17.868401 -972.09302
-20.208401 -17.837999 -970.98401
-19.3134 -17.909901 -970.20599
-18.7565 -17.865299 -970.02899
-18.3148 -17.959101 -969.58197
-16.491301 -18.0312 -967.89301
-15.1591 -18.0903 -967.13898
-13.8308 -18.202999 -967.12903
-13.8219 -18.132099 -966.13397
-11.8376 -18.356701 -965.474
-9.0965595 -18.3363 -963.526
-8.3184204 -18.410101 -963.53601
-6.8028598 -18.5172 -962.86298
-5.57233 -18.516001 -962.30603
-5.1716299 -18.558901 -961.83301
-2.86432 -18.6868 -961.56097
3.5344801 -18.999901 -959.80499
5.7636099 -19.1278 -959.85303
16.308701 -19.6689 -960.599
17.273399 -19.691 -960.51099
-36.091099 -16.5721 -1004.95
-36.0089 -16.727699 -1003.14
-35.808201 -16.8402 -1001.12
-35.478199 -16.833599 -996.20099
-35.4217 -16.777399 -994.41199
-35.007 -16.811899 -993.45001
-34.2374 -16.906099 -991.57202
-32.634201 -16.894199 -988.92102
-29.500401 -16.9918 -982.565
-29.187099 -16.997601 -981.763
-28.3125 -17.0625 -980.64502
-27.407301 -16.764601 -978.73199
-19.234301 -17.4217 -970.26202
-18.1786 -17.466299 -969.66602
-15.4358 -17.8004 -967.755
-14.4705 -17.6091 -966.89301
-12.9428 -17.7288 -966.34302
-12.285 -17.727501 -965.78198
-7.6960402 -17.9599 -962.73102
-4.13416 -18.0954 -961.453
-1.7981 -18.262199 -961.31097
-0.88622999 -18.290501 -960.97803
0.48223901 -18.4209 -960.77802
1.00183 -18.3862 -960.26801
3.6571 -18.509701 -959.922
4.6143198 -18.5567 -959.69897
17.981501 -19.253799 -960.41803
-35.738899 -16.3078 -1001.25
-35.736599 -16.285 -995.62701
-35.583801 -16.274099 -993.96698
-34.316299 -16.3722 -991.35101
-33.126801 -16.3428 -989.43597
-32.4011 -16.3953 -987.74597
-29.9084 -16.497499 -983.13501
-29.544399 -16.5107 -982.422
-26.120399 -16.6602 -977.66803
-18.699499 -16.971001 -969.91498
-15.0094 -17.1355 -967.21503
-14.6354 -17.1579 -966.82202
-13.9326 -17.216801 -966.849
-9.2677002 -17.399599 -963.96399
-8.28088 -17.7794 -963.099
-4.1063199 -17.643999 -961.42603
-1.84875 -17.7871 -961.12701
-0.44146699 -17.8505 -960.71503
1.12042 -17.927601 -960.38202
3.12152 -17.9979 -959.87
3.6727901 -18.033001 -959.86798
8.7423697 -18.3368 -960.11603
9.6107798 -18.3591 -959.88702
13.517 -18.5555 -960.02399
15.8105 -18.6598 -960.44501
18.269899 -18.9419 -960.32898
-35.661999 -15.8111 -1001.35
-35.589401 -15.5094 -999.21503
-34.0392 -15.8278 -991.862
-33.8064 -15.8155 -990.88
-32.835499 -15.7559 -989.78699
-32.3647 -15.9275 -988.90503
-31.915701 -15.889 -987.00201
-29.026199 -16.0012 -981.88702
-27.9473 -16.038099 -979.82501
-25.8995 -16.1085 -976.677
-18.146999 -16.472401 -969.60901
-13.9589 -16.6998 -966.729
-12.3213 -16.743299 -965.12799
-11.2471 -16.8221 -964.84998
-10.3342 -16.8218 -964.34802
-8.9624004 -16.930599 -963.15302
-5.37708 -17.0972 -962.17102
-3.27667 -17.2313 -961.59998
-1.18457 -17.4244 -960.77399
2.1535001 -17.467699 -960.04102
3.8482101 -17.558701 -960.04498
5.7980299 -17.6551 -959.63098
9.1499596 -17.828699 -959.86401
10.7789 -17.9228 -959.96301
17.1901 -18.2115 -960.14099
21.3627 -18.506001 -960.27197
-35.187 -15.1116 -1014.98
-35.3894 -15.4614 -1010.14
-35.922901 -15.171 -1003.46
-35.854 -15.2697 -1001.02
-35.624802 -15.2234 -995.60901
-35.333199 -15.2353 -994.30402
-34.356998 -15.1783 -992.55103
-33.6796 -15.3174 -990.98102
-33.552601 -15.2874 -989.97803
-32.874001 -15.3404 -989.73401
-32.744499 -15.3093 -988.53802
-31.216101 -15.3736 -985.13501
-21.302401 -15.8206 -972.14899
-20.8459 -15.8651 -971.79901
-18.051001 -15.9816 -969.69397
-17.1991 -16.0308 -968.78802
-13.7742 -16.152201 -965.93402
-10.2761 -16.327299 -964.29199
-5.9646001 -16.6856 -962.37799
-5.13831 -16.563999 -961.59802
-3.9674699 -16.689199 -961.56201
-0.18536399 -17.1441 -960.81201
1.35309 -17.0504 -960.27502
3.1830399 -16.9986 -959.78198
3.79846 -17.040501 -959.88
4.87921 -16.8755 -959.659
16.2318 -17.670601 -960.15601
17.459299 -17.7367 -960.43298
18.706499 -17.847799 -960.39502
20.9825 -17.9485 -961.11102
-36.285999 -14.5927 -1005.01
-35.5485 -14.6814 -999.14502
-35.754002 -14.6389 -995.42603
-35.3988 -14.7822 -994.16302
-34.8946 -14.4745 -993.224
-33.766201 -14.7511 -990.729
-32.933201 -14.6676 -989.30798
-32.320301 -14.7787 -987.71198
-31.806999 -14.8298 -987.06201
-31.4405 -14.8485 -986.177
-29.9433 -14.871 -982.81897
-27.776899 -15.0012 -979.95697
-26.663099 -15.0411 -977.896
-25.640301 -15.1313 -977.27802
-23.0208 -15.0086 -973.65997
-19.2957 -15.3889 -969.88
-18.6458 -15.4211 -969.81403
-15.4954 -15.5491 -967.12
-14.1478 -15.5046 -966.797
-10.7586 -15.7784 -964.44397
-0.77526897 -16.303301 -960.80603
1.2440799 -16.5173 -959.95398
3.27637 -16.5035 -959.862
3.71259 -16.512899 -959.68799
5.6984301 -16.599701 -959.349
8.0564003 -16.746099 -959.41498
9.4608803 -16.7857 -959.31
11.9841 -16.8894 -959.664
15.144 -17.069799 -959.95697
15.6743 -17.113199 -959.99902
21.403 -17.4179 -960.91699
-35.086601 -14.2168 -1015.87
-35.624001 -14.2306 -1010.5
-35.590801 -14.0684 -995.87402
-34.7556 -14.1496 -993.53003
-34.337898 -14.1121 -992.242
-34.322601 -14.1682 -991.48798
-33.675701 -14.1913 -990.82001
-33.027599 -14.1719 -989.35303
-32.5886 -14.1933 -988.66302
-32.231602 -14.2234 -987.802
-31.8515 -14.5396 -986.85199
-31.815599 -14.0218 -985.97699
-29.514799 -14.3589 -982.19202
-27.803301 -14.4366 -979.841
-26.6033 -14.4668 -977.89899
-24.8025 -14.4305 -975.552
-24.524 -14.5244 -975.09698
-23.037001 -14.6507 -974.02502
-15.0775 -15.2987 -966.57501
-13.1383 -15.2503 -966.005
-11.4636 -15.2278 -965.19202
-9.3551598 -15.2728 -963.10999
-8.3914204 -15.4865 -963.31299
-7.4310899 -15.378 -962.45001
-6.7792401 -15.4488 -962.50299
-5.3006001 -15.3099 -961.65698
-4.0999799 -15.5453 -961.11902
-0.96362299 -15.716 -960.43799
0.64361602 -15.8008 -960.21899
1.1195101 -15.818 -960.05402
3.24951 -15.933 -959.73102
3.7344401 -15.96 -959.65698
14.6851 -16.523399 -959.92102
16.3237 -16.6187 -960.12
18.0632 -16.6945 -960.36298
21.409201 -16.8365 -960.914
-34.993301 -13.5955 -1016.17
-35.921299 -13.517 -1005.8
-35.552898 -13.5738 -1003.73
-35.657398 -13.5135 -1001.36
-35.419399 -13.5095 -994.23901
-34.681 -13.5245 -992.08197
-34.151199 -13.5866 -991.44501
-33.6273 -13.6095 -990.87903
-32.723 -13.6547 -988.53198
-31.8134 -13.6707 -986.90002
-31.3445 -13.7159 -986.22803
-29.0322 -13.7713 -981.58002
-23.6791 -14.2707 -974.36298
-23.2034 -14.0454 -973.69501
-22.6304 -14.1162 -973.388
-20.972099 -14.162 -971.40002
-15.8614 -14.4413 -967.38599
-9.9075899 -14.5768 -963.23401
-6.59833 -14.8867 -961.84399
-5.1757202 -14.9273 -961.315
-3.36255 -15.0453 -961.19098
0.070739701 -15.2273 -960.19202
1.65906 -15.2996 -959.90002
2.41187 -15.1635 -959.85797
4.2595201 -15.4153 -959.52899
5.2091098 -15.4757 -959.28998
6.2922401 -15.5319 -959.20599
8.0482197 -15.62 -959.242
-34.7878 -13.0019 -1016.53
-35.765099 -12.9783 -1003.64
-35.559101 -12.9911 -996.14301
-35.3395 -12.9266 -994.44098
-34.6483 -12.964 -992.17798
-33.817501 -13.0161 -990.50098
-33.072201 -13.0352 -989.16302
-31.4268 -13.1374 -986.07001
-28.5466 -13.0994 -981.20599
-27.1096 -13.149 -978.07599
-24.990999 -13.3939 -975.42401
-23.691401 -13.4596 -973.99298
-22.3074 -13.5214 -972.659
-21.881001 -13.5419 -972.15302
-16.808001 -13.8038 -968.01398
-15.0406 -13.8926 -966.52197
-10.4705 -14.1133 -963.375
-7.68958 -14.3371 -962.974
-5.2632399 -14.3464 -961.11499
-4.1857901 -14.4014 -960.85901
-2.39465 -14.5177 -960.698
-1.31519 -14.5855 -960.591
-0.0125122 -14.6351 -960.008
5.8184199 -14.9435 -959.24298
9.0128202 -15.0611 -959.01202
13.592 -15.0236 -959.62903
23.776199 -15.8235 -961.20203
-34.805302 -12.4671 -1016.67
-35.693699 -12.4342 -1003.59
-35.5242 -12.6438 -1001.23
-35.4235 -12.395 -996.78998
-35.3395 -12.4028 -994.65002
-34.837898 -12.4173 -993.57898
-34.152802 -12.4464 -991.45203
-32.8564 -12.5297 -989.466
-32.2682 -12.5393 -989.05298
-31.615801 -12.5217 -985.78497
-27.955099 -12.7154 -979.44598
-26.5695 -12.8158 -977.75299
-26.1294 -12.7993 -977.13
-24.475599 -12.8985 -975.06799
-22.5278 -13.0219 -973.41101
-19.658701 -13.1185 -970.12799
-17.473301 -13.28 -969.09802
-14.7861 -13.1876 -966.42102
-14.489 -13.3991 -966.30798
-8.2393198 -13.7244 -962.89203
-6.5844102 -13.9348 -961.78003
-4.17975 -13.8528 -960.79602
0.0093994103 -14.1072 -959.979
1.72369 -14.4086 -959.91803
2.5111699 -14.0598 -959.61102
7.9024 -14.4961 -958.87701
12.4224 -14.7166 -959.849
14.6961 -14.8464 -959.68103
-35.664299 -11.8946 -1003.45
-35.635201 -11.8563 -999.21802
-33.897301 -11.953 -991.94501
-33.6455 -11.9541 -990.78302
-31.848301 -12.0683 -988.22998
-31.0919 -12.063 -985.047
-29.8076 -12.1709 -982.48999
-29.399599 -12.1491 -982.15802
-29.1595 -12.1583 -981.271
-28.605801 -12.2049 -980.922
-27.434099 -12.2575 -978.98199
-26.527201 -12.3174 -977.78699
-18.265699 -12.684 -968.93298
-17.616199 -12.8067 -969.16699
-14.6334 -12.873 -965.97498
-13.1246 -12.9642 -965.01501
-12.3632 -13.0068 -964.15002
-11.4928 -12.9962 -963.58899
-10.8625 -13.0891 -963.68597
-10.29 -13.118 -963.64203
-8.4876099 -13.2592 -963.56097
-5.1012602 -13.359 -961.20502
-2.91278 -13.4688 -960.71399
-2.68225 -13.438 -960.22101
-0.80755597 -13.5623 -960.39001
1.74835 -13.7095 -959.797
5.0538301 -14.1201 -959.09399
6.2764301 -13.9238 -958.92902
6.9957299 -13.9672 -959.14203
9.0887499 -14.0612 -958.96399
10.0533 -14.1106 -958.87
15.2544 -14.3792 -959.72198
-35.648899 -11.3442 -1003.65
-35.280899 -11.6641 -999.85602
-35.5154 -11.2661 -996.586
-34.935398 -11.3918 -995.47498
-34.681499 -11.2119 -993.758
-34.174301 -11.3887 -993.06299
-33.824799 -11.5418 -991.98602
-33.525501 -11.4709 -991.04901
-32.799198 -11.4845 -989.5
-32.438702 -11.5 -988.745
-30.228901 -11.6019 -983.47101
-28.2894 -11.7106 -980.09998
-27.437201 -11.8931 -978.97498
-25.296101 -11.8613 -975.96301
-24.1607 -11.8932 -974.79199
-23.694 -11.9658 -975.01099
-22.9517 -12.0076 -973.815
-18.328699 -12.1969 -968.77698
-17.2309 -12.2323 -968.20697
-13.582 -12.5316 -965.08502
-11.4528 -12.5267 -963.62097
-1.43036 -13.0478 -960.22998
0.123901 -12.8978 -959.88098
0.94458002 -13.152 -959.45801
1.72614 -13.2208 -959.659
3.3452799 -13.3066 -959.46198
4.4320698 -13.388 -959.297
9.49261 -13.5714 -958.76703
13.3975 -13.7752 -959.00299
16.2407 -13.9298 -959.59302
-35.5602 -11.0948 -1007.17
-35.435699 -10.8564 -1001.87
-35.063702 -10.877 -1000.23
-34.6455 -10.8735 -994.11798
-34.4119 -10.8921 -991.75897
-33.539902 -10.9642 -991.12903
-32.705002 -10.9946 -989.68201
-32.5331 -10.9992 -988.54401
-31.903601 -11.2493 -988.10101
-30.258499 -11.1014 -983.37903
-28.5319 -11.2065 -980.91302
-27.7192 -11.2657 -979.65802
-23.7031 -11.4886 -974.966
-18.3085 -11.6999 -968.70801
-17.5457 -11.7531 -968.73401
-14.1543 -11.9622 -965.39398
-13.7888 -11.9395 -964.87
-11.6086 -12.0857 -964.117
-9.7174702 -12.1788 -963.51898
-5.1323199 -12.355 -961.06702
-3.3945301 -12.4778 -960.79602
-1.41504 -12.5932 -960.18298
1.7868 -12.7432 -959.68903
2.6473999 -12.7636 -959.22998
5.1512499 -12.893 -958.86298
6.2477999 -12.9393 -958.79102
7.0868502 -13.0282 -959.17102
9.4499502 -13.1268 -958.63898
10.5518 -13.1829 -958.677
-35.435101 -10.2837 -1004.56
-35.175598 -10.4073 -1002.29
-34.647598 -10.3562 -994.263
-34.054798 -10.3698 -992.89001
-33.5555 -10.6155 -991.14899
-32.951698 -10.3348 -989.46802
-32.305199 -10.5269 -988.909
-31.559299 -10.5457 -987.112
-31.3622 -10.4156 -986.24298
-30.3542 -10.7904 -984.57202
-29.413401 -10.6432 -982.01898
-19.120701 -11.1514 -969.51801
-18.0805 -11.2362 -968.81403
-13.4188 -11.4997 -965.01099
-9.7204599 -11.3928 -963.34198
-7.9344501 -11.699 -962.22699
-6.29248 -11.7914 -961.50897
-5.4889498 -11.8537 -961.33002
-1.33179 -12.0837 -960.229
1.08234 -12.1992 -959.51703
2.7899201 -12.4694 -959.5
3.5926499 -12.1474 -959.17297
4.6489902 -12.4159 -959.30798
8.4843798 -12.5495 -958.672
9.5019503 -12.5001 -958.67499
11.7151 -12.724 -958.711
22.7927 -13.1359 -960.77899
-35.4081 -9.7571001 -1004.41
-35.0518 -9.83286 -998.15198
-34.809601 -9.9929199 -995.90002
-34.3563 -9.6558504 -994.24298
-34.138199 -9.8804598 -993.26398
-33.303299 -10.1274 -991.284
-32.495201 -9.9552803 -988.59302
-31.729799 -10.224 -988.03302
-31.2621 -10.042 -986.10797
-30.379601 -10.0799 -984.58398
-29.3407 -10.1301 -982.09198
-28.905199 -10.1559 -981.49701
-28.666 -10.1505 -980.63898
-27.2745 -10.2285 -978.96997
-24.816999 -10.35 -975.31201
-23.9447 -10.3836 -974.27399
-23.1106 -10.4373 -973.21198
-22.2386 -10.4771 -972.13397
-21.715599 -10.523 -971.71399
-20.9384 -10.5461 -970.72803
-20.3859 -10.9544 -970.61902
-20.046301 -10.6241 -970.04901
-18.665199 -10.69 -968.80499
-15.486 -10.8579 -966.21698
-12.209 -11.0398 -964.20001
-11.6339 -11.0586 -963.98499
-9.0430298 -11.151 -962.521
-6.5228901 -11.3537 -962.31201
-5.2937002 -11.3925 -961.51001
-4.8985 -11.6115 -961.08899
-4.14325 -11.2241 -960.83197
-3.2379799 -11.4418 -960.96503
-0.66613799 -11.6089 -960.29602
0.26355001 -11.8526 -959.76801
2.82831 -11.7723 -959.34399
9.5969801 -12.1102 -958.71198
-34.9254 -9.08496 -1000.22
-34.832298 -9.2769604 -998.56702
-34.297298 -9.3143501 -995.40997
-34.2766 -9.2996597 -993.25403
-32.667301 -9.3671303 -989.68103
-32.534698 -9.3867197 -988.48401
-31.996599 -9.4425802 -987.87903
-31.2185 -9.3491402 -986.09497
-30.623501 -9.51688 -984.159
-29.4224 -9.4569902 -982.99103
-28.585501 -9.6386805 -980.70502
-27.320601 -9.6888199 -978.85999
-26.913099 -9.7074203 -978.20203
-22.7533 -9.9633598 -972.22803
-22.3894 -9.9774199 -971.633
-18.3013 -10.1961 -968.104
-13.6939 -10.4287 -964.862
-12.518 -10.5196 -964.591
-12.0884 -10.5549 -964.34601
-10.766 -10.5747 -963.896
-10.098 -10.6651 -963.68701
-2.85992 -10.9674 -960.44
-1.60461 -11.0748 -960.52698
1.0946 -11.0344 -959.37701
2.8203101 -11.253 -959.27002
3.9296899 -11.3334 -959.26398
4.3247099 -11.3588 -959.08801
7.4883399 -11.5028 -958.70203
8.6033297 -11.5609 -958.70203
9.64923 -11.6194 -958.71503
10.6343 -11.6685 -958.59003
20.7472 -12.142 -960.185
23.4662 -12.1739 -961.18103
-33.9333 -8.6191101 -1016.87
-35.2094 -8.8560305 -1002.43
-34.9086 -8.6626396 -998.69
-34.609901 -8.8393602 -997.05402
-34.359402 -8.6755505 -995.37701
-34.1423 -8.7427998 -993.85999
-33.122799 -8.79494 -992.00598
-33.1031 -8.5326405 -990.95099
-32.2607 -8.8483601 -988.89502
-31.934601 -8.8503504 -987.93402
-31.734699 -8.8765402 -986.74298
-29.9013 -8.7730904 -982.91602
-29.262501 -9.0145397 -982.13098
-27.561001 -9.0810204 -979.61499
-27.0432 -9.1473303 -979.27197
-26.542 -9.1535101 -977.45801
-24.1439 -9.2868996 -973.46198
-23.7955 -9.4821501 -973.16998
-21.884899 -9.4301796 -971.08002
-19.8771 -9.6130505 -969.38202
-17.271799 -9.6730099 -967.37799
-14.6479 -9.8019505 -965.36499
-13.6749 -9.87041 -964.815
-12.6946 -9.9500704 -964.25299
-11.6147 -9.9942398 -963.98102
-10.2861 -10.0207 -963.336
-8.9639902 -10.0934 -962.534
5.4607501 -11.0238 -958.55298
8.5794096 -10.9951 -958.59399
10.6656 -11.0819 -958.55603
11.6912 -11.112 -958.45001
-34.110802 -7.88627 -1016.76
-34.9006 -8.0984497 -998.51703
-34.603802 -8.1075401 -997.052
-34.427399 -8.1248598 -995.35699
-33.888901 -8.18083 -994.30402
-33.750099 -8.2030897 -992.729
-33.504501 -8.3637104 -991.888
-32.7822 -8.2602596 -991.06897
-32.150299 -8.3312798 -989.07397
-32.046902 -8.45683 -987.789
-31.633699 -8.0879097 -986.66901
-30.9247 -8.3713303 -986.58197
-30.941999 -8.3389301 -985.01599
-30.0986 -8.4006395 -983.466
-29.6113 -8.4422302 -982.81799
-27.98 -8.4183903 -980.51801
-24.3018 -8.7226 -974.34802
-22.6192 -8.8521605 -972.23297
-19.1406 -9.0366697 -968.84998
-12.3485 -9.6473799 -963.65399
-11.7141 -9.3941002 -963.87097
-9.84729 -9.4930296 -963.01703
-8.7400503 -9.4610205 -962.98901
-5.0466299 -9.75665 -960.80402
-2.43262 -10.109 -960.43903
-1.74396 -9.9120598 -960.17999
-1.33948 -9.9409599 -959.96997
1.71136 -10.0641 -959.25098
3.24353 -10.1539 -958.93597
5.8343501 -10.2869 -958.685
8.7304697 -10.4371 -958.73102
10.118 -10.3816 -958.849
10.618 -10.5401 -958.00702
12.3555 -10.6029 -958.53699
-35.1679 -7.5222402 -1000.31
-34.915199 -7.4973602 -998.59302
-34.649601 -7.51476 -997.06702
-34.128399 -7.5822902 -995.79602
-33.827801 -7.6242499 -994.47803
-32.193199 -7.7075701 -988.96698
-31.086201 -7.78473 -986.29401
-29.867599 -7.73663 -983.44
-28.4018 -7.93677 -980.87299
-27.2509 -8.1921101 -978.90802
-26.5266 -7.8922801 -978.16803
-26.4086 -8.0725803 -977.28003
-23.916401 -8.2023897 -973.758
-19.044399 -8.1746502 -969.00897
-13.7952 -8.7472095 -965.492
-13.6678 -8.7185698 -964.73401
-11.186 -8.8260899 -963.72101
-10.2028 -9.1351204 -962.99597
-8.9243803 -8.9828396 -962.46198
-3.9332299 -9.2312202 -960.43597
1.71191 -9.5234003 -959.19702
4.0903902 -9.5448503 -958.94
7.8550401 -9.8697596 -958.54199
9.1551504 -9.8779802 -958.52399
10.1364 -9.9286299 -958.42999
10.9752 -10.0167 -958.32898
17.524799 -10.28 -959.46802
-34.856602 -6.8022499 -1000.87
-34.7174 -6.9888101 -999.09198
-34.0779 -7.02493 -995.935
-33.9007 -7.02179 -994.35699
-33.067299 -7.10074 -990.54999
-32.3354 -7.1268101 -988.68597
-31.1891 -7.2294598 -986.09399
-30.037001 -7.27283 -983.51001
-29.654301 -7.31703 -982.776
-28.744301 -7.3624601 -981.55298
-27.051399 -7.4811001 -979.11798
-26.724001 -7.4881701 -978.06201
-26.804399 -7.3786502 -976.90002
-23.0762 -7.70187 -972.771
-22.181801 -7.7641702 -971.79797
-19.666599 -7.8750601 -969.117
-18.5546 -7.9590502 -968.69702
-18.2314 -7.94561 -968.02899
-14.9731 -8.2504997 -965.88898
-14.4993 -8.1741304 -965.46301
-12.5344 -8.3015404 -964.53198
-10.5807 -8.3571501 -963.63702
-6.4587998 -8.6059799 -962.09497
-2.8466799 -8.8856401 -960.56201
-1.51099 -8.7978802 -959.61298
2.3771999 -9.0339098 -959.24402
3.3568101 -9.0728998 -958.95898
7.0999098 -9.2562704 -958.69598
9.1368999 -9.35042 -958.43903
11.1852 -9.4534998 -958.323
19.378401 -9.8445902 -959.815
-34.594398 -6.4693398 -1001.49
-34.272499 -6.46593 -997.65399
-34.2691 -6.4709902 -995.65698
-33.778099 -6.4302101 -995.26599
-33.506401 -6.6125698 -993.49701
-33.018398 -6.5836902 -990.68103
-32.313099 -6.6641502 -989.94501
-32.514999 -6.6912198 -988.89001
-31.988199 -6.6268301 -987.75598
-31.1 -6.6964202 -986.21002
-30.6709 -6.7487898 -985.37299
-30.053101 -6.8115702 -984.89203
-29.5674 -6.8188701 -982.81702
-28.010099 -6.9032502 -980.15399
-27.514099 -6.9303298 -979.62201
-23.267599 -7.20544 -973.73297
-18.8176 -7.6775599 -969.039
-13.7082 -7.7529802 -964.86401
-12.0477 -7.7350202 -964.32599
-11.3515 -7.83004 -964.25403
-9.9744902 -7.9295602 -963.57001
-4.09308 -8.0333996 -961.013
-1.22363 -8.3195801 -959.914
2.52478 -8.57833 -959.10498
6.9419599 -8.7573404 -958.41602
8.1097403 -8.7919798 -958.43103
8.9788799 -8.9977102 -958.31097
11.3231 -8.9492102 -958.43597
12.459 -9.0072298 -958.495
-34.810699 -6.0585699 -1003.99
-34.053799 -5.9702101 -996.01099
-33.513199 -6.1183901 -993.31
-33.094501 -6.0965099 -992.13397
-32.889599 -6.0710201 -990.87598
-31.934999 -6.1394701 -987.83099
-31.0776 -6.2056398 -986.237
-30.6943 -6.2330599 -985.34601
-30.0404 -6.28722 -984.92902
-25.944 -6.5204802 -976.50897
-24.3486 -6.6282601 -974.39301
-22.35 -6.7344999 -972.78497
-13.332 -7.2746902 -965.414
-12.0975 -7.27775 -964.09003
-10.45 -7.4021802 -963.72601
-9.5397301 -7.4604602 -963.29901
-8.9716196 -7.5030699 -963.013
-8.5433302 -7.4854398 -962.82501
-2.5211799 -7.8212399 -960.547
-0.71588099 -7.8084602 -959.534
0.140442 -8.0096798 -959.54199
1.8595001 -8.0227699 -959.258
5.2053199 -8.1374702 -958.51703
6.1963501 -8.3636599 -958.55701
8.0402803 -8.2957296 -958.26398
11.2642 -8.4626999 -958.315
16.507799 -8.7234297 -959.31097
-34.626801 -5.38691 -999.15698
-34.357601 -5.5833702 -997.67401
-34.001598 -5.47504 -996.19
-33.8615 -5.4828901 -994.487
-33.4538 -5.62572 -993.22198
-32.963402 -5.5668402 -992.37201
-32.791199 -5.5795398 -991.01202
-31.2668 -5.5795102 -986.336
-30.6147 -5.7314801 -985.45001
-29.654499 -5.6348 -983.84802
-26.4275 -6.2966499 -978.008
-23.028 -6.2049298 -972.89099
-19.0816 -6.4324398 -968.97803
-18.1047 -6.4809799 -968.323
-14.9011 -6.6870399 -965.789
-9.6463604 -6.91506 -963.03497
-9.0752001 -7.0078001 -962.81097
-7.3121901 -7.2045598 -962.01398
-2.2221701 -7.4368601 -959.77502
-0.64544702 -7.4324598 -959.823
6.2084398 -7.8537598 -958.448
7.1168799 -7.5623202 -958.11298
8.1304302 -7.8538098 -958.354
9.0997295 -7.8882499 -958.19098
11.298 -7.9988599 -957.94098
19.8885 -8.6796303 -959.77197
-34.3395 -4.9195299 -999.59302
-34.388901 -4.8993502 -997.60498
-33.916199 -4.9702501 -996.35498
-33.622799 -4.9274402 -994.95203
-33.256001 -5.02704 -993.66602
-32.626202 -5.0630002 -989.73199
-32.312302 -5.0753598 -988.70203
-31.8193 -5.15905 -988.02301
-31.299801 -5.1766601 -987.29797
-29.3195 -5.3023601 -983.15601
-28.9342 -5.3407102 -982.42297
-28.690599 -5.3579402 -981.50098
-24.7043 -5.59939 -974.867
-24.182501 -5.6177101 -974.59698
-22.4557 -5.7560401 -972.54901
-14.4968 -6.1721601 -965.50403
-12.3579 -6.3734698 -964.44202
0.14190701 -6.9047799 -959.151
4.4259 -7.1522799 -958.71301
6.2975502 -7.2248001 -958.15198
7.4544101 -7.0643702 -958.42297
8.1418505 -7.3432002 -958.30902
9.5183697 -7.0584798 -958.27698
12.8396 -7.7857099 -958.23401
15.3254 -7.6855798 -958.95001
20.5012 -7.9080901 -959.79602
-34.347801 -4.3808298 -1002.26
-33.741501 -4.4281101 -994.72101
-33.379902 -4.4703102 -993.48798
-32.451698 -4.5559001 -989.96002
-31.9072 -4.5890899 -987.82397
-30.5811 -4.71873 -985.41901
-30.1656 -4.9684401 -983.70599
-29.335501 -4.6946602 -982.32397
-28.180799 -4.8506098 -981.05402
-27.8717 -4.8989 -980.23901
-27.625799 -4.803 -978.94598
-23.866501 -5.1315799 -973.85699
-19.0123 -5.4802899 -969.86603
-13.5821 -5.7506299 -965.77399
-13.5692 -5.7153602 -964.79401
-12.3878 -5.8092098 -964.492
-10.4512 -5.756 -963.745
-10.2543 -5.9086099 -962.94397
-8.6967802 -5.9633899 -962.43103
-6.9597201 -6.0991402 -962.07001
-1.25281 -6.3656201 -959.67999
2.14764 -6.8398199 -959.25702
2.8447299 -6.5215001 -958.75098
3.64551 -6.71421 -958.63202
4.4068599 -6.6595802 -958.62701
5.61127 -6.6303802 -958.51801
6.4243202 -6.7343001 -958.27301
8.1511803 -6.81774 -958.26099
10.6732 -6.9074798 -958.06598
16.7782 -6.93888 -958.90601
-34.4711 -3.79404 -999.784
-34.1348 -3.8539801 -998.17902
-33.8452 -3.86393 -996.505
-33.476601 -3.8887701 -995.22803
-33.025101 -3.9770899 -992.32599
-32.450901 -4.0240202 -990.03497
-31.879999 -4.10852 -989.67902
-31.7026 -4.0636401 -988.21503
-31.4119 -3.82757 -987.08301
-30.478901 -4.2004499 -985.38501
-30.264 -4.1677098 -984.46503
-29.881599 -4.1972399 -983.58301
-29.319901 -4.2501602 -983.13098
-27.1889 -4.4203701 -979.97601
-24.5345 -4.5701799 -975.04401
-23.793501 -4.5934501 -973.93201
-22.0832 -4.6005001 -971.83698
-19.6733 -4.8612099 -970.073
-18.0259 -4.9523702 -968.32599
-15.7029 -5.0602698 -966.55499
-14.847 -5.1131101 -965.86902
-12.585 -5.2666898 -965.12299
-9.5977201 -5.5023298 -962.66803
-7.6235399 -5.5096202 -961.97101
-4.5472398 -5.6750102 -961.06097
0.282837 -5.9129601 -959.33398
4.53369 -6.41116 -958.375
4.6945801 -5.9222798 -958.47101
5.50562 -6.1737099 -958.53998
6.5227699 -6.21451 -958.37299
7.5798302 -6.0434699 -958.17401
9.5513897 -6.5125499 -958.08899
14.3359 -6.39188 -959.00098
20.2841 -7.0861301 -959.47803
-34.120201 -3.2353599 -1000.51
-33.889599 -3.2710199 -996.526
-33.334702 -3.3510101 -995.59497
-33.489101 -3.31144 -993.39697
-32.6063 -3.4251599 -991.37201
-32.4119 -3.43927 -990.06
-31.3859 -3.5211999 -987.14697
-30.575899 -3.5811999 -985.45099
-30.1856 -3.61185 -984.56097
-29.442301 -3.6370699 -982.87903
-28.861799 -3.6977601 -982.50403
-28.570999 -3.7395201 -981.617
-27.7925 -3.78073 -980.33398
-24.9116 -3.98419 -975.63397
-24.660601 -3.9986401 -974.83099
-20.9531 -4.2210202 -971.23999
-20.754601 -4.22293 -970.461
-20.010799 -4.3042202 -970.56201
-19.4277 -4.2908602 -969.39203
-18.013399 -4.3785601 -968.22699
-15.776 -4.27106 -967.09998
-14.236 -4.5996699 -965.69598
-13.5147 -4.62538 -964.79498
-10.4009 -4.8418398 -963.47498
-8.7603102 -4.9086199 -962.22998
-5.77808 -5.0353198 -960.93597
-5.1165199 -5.09446 -961.06201
-3.19714 -5.1837802 -960.211
2.8506501 -5.4697599 -958.66901
4.0546899 -5.5696301 -958.79303
4.8650498 -5.5696001 -958.38098
5.9516602 -5.63164 -958.315
6.67206 -5.7807899 -958.29602
7.6973901 -5.7401299 -958.33698
8.8053598 -5.7908602 -958.31
9.5999098 -5.9362602 -957.90698
14.3123 -6.0536299 -958.72699
-34.210899 -2.6468201 -1000.43
-33.007401 -2.80707 -992.31
-32.642601 -2.8508699 -991.367
-32.522701 -2.81162 -989.90503
-32.009399 -2.8775201 -989.237
-31.1138 -2.97122 -987.62
-31.301001 -2.9324999 -985.76099
-30.2782 -3.1426499 -985.31201
-29.653299 -3.0880599 -983.92902
-28.5784 -3.28304 -982.06799
-27.3542 -3.23631 -979.63599
-26.2836 -3.3069501 -977.08398
-24.4713 -3.30581 -974.37
-23.5193 -3.4986501 -974.302
-23.303499 -3.4849501 -973.41602
-14.0084 -4.2263999 -965.56403
-13.4634 -4.0995402 -964.83698
-12.1915 -4.1279998 -963.68402
-11.0636 -4.2255101 -963.46997
-9.2493296 -4.28828 -962.27301
1.11096 -5.0012598 -959.62799
3.30267 -5.0045199 -958.78003
4.4176002 -4.9995699 -958.47601
5.86798 -5.0827899 -958.15302
11.4304 -5.3838 -958.34698
14.2302 -5.46842 -958.56
17.003901 -5.5969801 -958.93103
-34.391102 -2.0287399 -1000.35
-34.223301 -2.0399001 -998.37402
-33.624901 -2.11131 -997.14697
-33.623402 -2.1710701 -995.16101
-33.2756 -2.3175499 -993.74902
-32.471401 -2.16242 -991.14801
-31.930099 -2.31006 -989.34497
-31.812401 -2.5202301 -988.41302
-29.2435 -2.5118999 -983.30902
-28.3729 -2.5774701 -980.651
-27.6749 -2.6619201 -980.461
-27.128 -2.7699201 -979.784
-18.7528 -3.395 -969.47101
-15.5681 -3.39818 -966.56598
-13.3824 -3.50791 -964.828
-9.6317101 -3.7274699 -962.82501
-9.0700102 -3.83955 -962.54999
-7.2346802 -3.87817 -961.505
-6.3631601 -3.8619201 -960.92499
-4.9159498 -4.0850101 -960.78003
-4.3095698 -3.7319 -960.30103
-3.6496601 -3.86708 -960.14301
-1.21832 -4.1516299 -959.47302
-0.63678002 -4.2003398 -959.58002
2.6758399 -4.36585 -959.27399
5.4392099 -4.5062399 -958.35303
6.1410499 -4.6037798 -958.25201
13.1596 -4.8303599 -958.46802
15.818 -4.97855 -958.65601
-33.905602 -1.75745 -999.02802
-33.4081 -1.6107 -995.565
-33.109402 -1.80419 -993.80402
-32.989799 -1.67128 -992.474
-32.456299 -1.60502 -991.70398
-32.069401 -1.8360699 -990.08197
-31.768299 -1.78335 -989.646
-31.782301 -2.0123701 -988.26099
-30.613501 -1.92348 -986.76801
-30.0203 -1.92471 -984.85901
-29.732599 -1.94242 -983.78699
-29.2446 -1.99485 -983.18903
-28.9214 -2.0139301 -982.35498
-27.34 -2.1312799 -979.59998
-27.1481 -2.1305201 -978.36603
-25.225 -2.2880599 -976.146
-23.2523 -2.39272 -973.44397
-19.758801 -2.6166501 -969.75897
-18.6248 -2.70158 -969.37097
-14.3118 -2.9340601 -965.43799
-13.7786 -2.9698999 -965.23798
-13.3677 -2.9934399 -964.82703
-12.2839 -3.0933499 -964.45099
-10.296 -3.1932199 -963.47101
-0.50494403 -3.6544099 -959.75403
6.4742398 -3.9846001 -958.29199
8.9321899 -4.1280098 -958.52698
10.895 -3.9344699 -958.22998
14.8935 -4.4008899 -958.67102
-33.652 -1.07495 -999.46399
-33.4832 -1.08871 -997.59399
-33.196899 -1.09873 -995.96301
-32.937698 -1.18793 -994.46198
-32.670601 -1.17776 -991.35999
-31.8799 -1.41986 -989.44098
-30.4702 -1.4184999 -986.80701
-30.419001 -1.38433 -985.659
-29.4902 -1.45802 -984.20001
-29.100201 -1.47998 -982.073
-28.1401 -1.57259 -982.25299
-26.9793 -1.66299 -978.745
-26.6576 -1.64697 -977.755
-26.219999 -1.67237 -977.12402
-23.4888 -1.91079 -974.23798
-20.4013 -1.83094 -970.495
-20.1371 -2.10936 -970.172
-14.7646 -2.4209099 -965.73199
-14.2007 -2.44608 -965.57397
-13.8163 -2.4697001 -965.12097
-13.2778 -2.5067101 -964.90302
-10.584 -2.53757 -963.453
-9.6090698 -2.6979401 -962.71301
-9.0969801 -2.72456 -962.375
-8.4822998 -2.75739 -962.37402
-3.9856601 -3.0411601 -960.72998
-2.69678 -3.06231 -959.79602
5.6715102 -3.3227301 -958.18799
6.76086 -3.553 -958.34198
7.81323 -3.5532999 -958.492
9.9270601 -3.6580801 -958.43903
11.5556 -3.7544301 -958.474
-33.490002 -0.501526 -999.92798
-33.668098 -0.54473102 -997.30902
-32.9132 -0.79101598 -994.46002
-32.500099 -0.67155498 -993.34601
-32.3367 -0.68559301 -991.95099
-31.8937 -0.783638 -991.04199
-31.766199 -0.75436401 -989.68597
-31.2897 -0.781708 -988.90698
-30.9904 -0.74820697 -987.37097
-30.4091 -0.87295502 -985.67902
-30.0373 -0.90719599 -984.81201
-29.7059 -0.94320703 -983.84998
-27.0089 -1.12421 -978.75
-26.196199 -1.19003 -977.14203
-25.2941 -1.27757 -976.00299
-24.7169 -1.5095 -975.20599
-23.9359 -1.38535 -974.66998
-23.136999 -1.4168299 -973.552
-22.2838 -1.4748501 -972.50403
-15.1445 -1.89609 -966.12799
-14.0587 -1.98184 -965.73901
-9.4561796 -2.2241499 -962.93701
-5.2165499 -2.46684 -960.64697
-4.6304302 -2.45784 -960.61298
-3.7815599 -2.7054901 -960.63702
-2.69489 -2.56023 -959.74298
4.0216699 -2.9024601 -958.72198
5.03021 -2.9279399 -958.58301
7.8048701 -3.0804701 -958.44299
12.0647 -3.2990899 -958.34802
14.8927 -3.7504201 -958.50403
16.688601 -3.5794799 -959.01001
20.066999 -3.64135 -959.40002
24.754 -3.8172801 -960.63599
-33.508598 -0.0143051 -999.96802
-33.614399 -0.042274501 -997.54498
-33.303501 -0.0593719 -995.875
-32.355099 -0.041496299 -992.03101
-32.115299 -0.215462 -990.651
-31.800501 -0.349792 -989.92401
-30.7714 -0.343025 -986.65198
-30.503599 -0.43502 -985.56598
-28.867399 -0.52279699 -982.42603
-27.118799 -0.655258 -979.98499
-25.425699 -0.76889002 -975.80603
-24.448601 -0.83783001 -974.93799
-22.675501 -0.94915801 -973.09003
-19.6495 -1.00594 -969.31
-16.8342 -1.3349 -967.57098
-14.5413 -1.4709899 -965.97302
-14.1609 -1.48536 -965.53699
-13.6147 -1.51202 -965.31598
-12.0363 -1.64217 -964.65302
-9.4368296 -1.71217 -962.87598
-8.27423 -1.70605 -961.62201
0.060546901 -2.2367599 -959.71899
0.36853001 -2.23212 -959.34998
2.78125 -2.3851099 -959.33698
5.1248798 -2.4679201 -958.69202
6.1975098 -2.34305 -958.50201
7.2325401 -2.58656 -958.41998
7.76648 -2.5979199 -958.33398
15.4656 -2.9640801 -958.62799
-33.653999 0.36021399 -999.93201
-33.216999 0.43765301 -996.172
-32.9846 0.30777699 -994.638
-32.692299 0.37223101 -993.15698
-32.247398 0.44686899 -991.98102
-31.6243 0.253548 -989.927
-28.342199 -0.053337101 -981.979
-26.3402 -0.203621 -978.25897
