# .PCD v0.7 - Point Cloud Data file format
VERSION 0.7
FIELDS x y z
SIZE 4 4 4
TYPE F F F
COUNT 1 1 1
WIDTH 1691
HEIGHT 1
VIEWPOINT 0 0 0 1 0 0 0
POINTS 1691
DATA ascii
44.272202 -28.1175 -1036.1
43.392899 -27.495501 -1037.11
42.727798 -26.5509 -1037.99
41.776699 -26.0361 -1039.0699
40.964699 -25.115999 -1040.24
39.348999 -24.231701 -1041.29
38.5415 -23.894199 -1041.67
38.0116 -23.068899 -1042.75
36.544998 -22.0669 -1043.87
35.0429 -21.4203 -1044.62
34.458099 -20.911699 -1044.89
33.449299 -20.893499 -1045.17
32.167099 -20.102699 -1045.77
28.6481 -18.4275 -1047.53
28.044701 -18.104601 -1048.09
27.3927 -17.7822 -1048.15
26.725401 -17.5392 -1048.35
26.2286 -17.1728 -1048.8101
25.6119 -16.796301 -1048.78
25.1387 -16.679899 -1049.0699
22.690399 -15.7994 -1049.9301
20.7892 -15.415 -1050.04
19.196699 -14.7398 -1050.4301
18.6824 -14.6523 -1050.76
18.067101 -14.6399 -1050.87
16.7967 -14.2025 -1050.77
16.101299 -14.2943 -1050.75
14.8806 -13.731 -1050.84
14.3068 -13.683 -1051.1
12.3986 -13.1143 -1051.2
12.0653 -12.5828 -1051.4
11.1793 -12.7943 -1051.37
10.6398 -12.5796 -1051.55
7.48666 -11.8125 -1051.83
6.8895898 -11.8182 -1051.64
5.84723 -11.6657 -1051.58
5.2848802 -11.642 -1051.48
4.2196698 -11.4557 -1051.4399
1.50809 -11.3425 -1050.55
0.53390503 -11.4952 -1050.47
-0.070343003 -11.0448 -1050.25
-0.938232 -11.0903 -1050.3199
-5.08356 -11.1096 -1048.97
-5.5922899 -10.8649 -1049.33
-9.9456196 -11.4375 -1047.34
-11.2142 -11.2986 -1046.83
-17.5284 -11.9075 -1043.79
45.139198 -28.760599 -1034.8
43.7197 -27.2131 -1036.65
42.764 -26.082199 -1037.67
41.5172 -25.313499 -1039.25
40.236698 -24.0233 -1040.59
39.4893 -23.6996 -1041.33
38.775299 -22.8978 -1041.73
38.014801 -22.6726 -1042.28
36.5816 -21.413401 -1043.55
35.688999 -21.298401 -1043.97
34.511002 -20.391199 -1044.75
33.848099 -20.222799 -1045.13
31.8346 -19.383499 -1045.91
31.0392 -18.510099 -1046.74
30.609301 -18.376801 -1047.0601
30.0023 -18.409901 -1047.15
29.2659 -18.319201 -1046.9301
28.679501 -17.9296 -1047.38
28.0487 -17.731001 -1047.74
26.708599 -16.781401 -1048.54
26.1908 -16.748899 -1048.75
25.662001 -16.302999 -1048.6
25.175301 -16.2188 -1048.84
24.6395 -16.186899 -1048.99
23.9566 -15.6784 -1049.5
23.192101 -15.8188 -1049.2
22.522301 -15.4955 -1049.53
22.0368 -15.3286 -1049.87
21.4153 -14.9547 -1049.63
19.881399 -14.5773 -1050.62
19.235701 -14.2236 -1050.16
18.6311 -14.2634 -1050.23
18.048201 -14.0234 -1050.52
16.8454 -13.6725 -1050.51
16.190599 -13.722 -1050.61
15.2049 -13.2122 -1050.9301
14.4266 -13.1317 -1051.01
13.2003 -12.7422 -1050.89
10.4436 -11.9471 -1051.92
9.8105497 -11.5165 -1051.79
8.5136404 -11.5068 -1051.6899
7.6831698 -11.1501 -1051.75
6.8566899 -11.417 -1051.5601
4.5934401 -10.9785 -1051.65
2.74704 -10.7643 -1051.11
-0.41668701 -10.5245 -1050.55
-1.67554 -10.686 -1050.1
-8.6972704 -10.8275 -1047.21
-9.8935499 -10.7424 -1047.24
-10.9246 -10.8203 -1046.78
-12.3485 -10.9549 -1046.12
-13.8652 -11.0321 -1045.73
-15.7953 -11.3217 -1044.4399
-17.2253 -11.6197 -1043.53
45.312302 -28.2946 -1034.4399
44.289299 -27.677601 -1035.8
43.857899 -26.542801 -1036.6899
42.560398 -25.6698 -1037.9301
41.8438 -24.7757 -1039.12
40.874699 -24.4471 -1039.77
40.188801 -23.4643 -1040.6801
39.512299 -23.236401 -1040.98
38.018799 -22.1357 -1042.41
37.429798 -21.600901 -1043.09
34.994099 -20.380899 -1044.63
33.167 -19.513599 -1045.54
32.650299 -19.1187 -1045.36
31.194599 -17.8577 -1046.85
30.565599 -18.065599 -1046.59
30.017599 -17.9002 -1046.79
28.628201 -17.202999 -1047.46
28.104 -17.2244 -1047.51
26.678101 -16.466 -1048.12
26.223301 -16.319 -1048.45
25.2845 -15.6074 -1048.77
24.2008 -15.5414 -1049.0699
23.309799 -15.1919 -1049.2
22.076 -14.8464 -1049.65
21.512699 -14.345 -1049.53
20.944401 -14.3016 -1049.72
20.4839 -14.1043 -1050.12
18.7437 -13.6572 -1050.16
16.905199 -13.2164 -1050.34
16.375601 -13.0672 -1050.58
15.7025 -13.063 -1050.83
15.1806 -12.5115 -1050.88
14.462 -12.7071 -1050.75
13.5598 -12.1739 -1051.14
12.3486 -11.9701 -1051.4399
11.7656 -11.9053 -1051.6801
11.1894 -11.509 -1051.55
10.5031 -11.487 -1051.62
8.9931297 -11.2171 -1051.35
7.4727802 -10.8984 -1051.4399
6.2261701 -10.8614 -1051.51
5.5378399 -10.4045 -1051.36
4.6987901 -10.5601 -1051.28
3.27472 -10.2127 -1051.21
2.28391 -10.1059 -1051.11
1.4061 -9.97614 -1050.76
0.59964001 -9.9303303 -1050.91
-0.28109699 -9.7098703 -1050.38
-1.15811 -9.8832397 -1050.26
-2.29178 -10.1255 -1050.03
-3.1803601 -9.7887897 -1049.79
-9.7807598 -10.4331 -1046.97
-13.9365 -10.8413 -1045.01
-17.494301 -10.9334 -1043.24
47.5448 -29.874901 -1031.4301
45.569302 -27.8922 -1034.0699
42.072201 -24.2376 -1038.77
40.981899 -23.7992 -1039.6899
39.961601 -22.8395 -1040.45
39.2995 -22.3647 -1041.39
38.524101 -22.1418 -1041.91
36.705002 -20.3958 -1043.29
35.9095 -20.0996 -1043.95
34.592499 -19.592899 -1044.41
33.305302 -18.8487 -1045.13
32.736599 -18.5879 -1045.26
30.6525 -17.465099 -1046.5699
30.0653 -17.4701 -1046.67
29.614901 -17.341299 -1047.01
28.6833 -16.730499 -1047.23
26.7318 -15.9609 -1047.87
26.342899 -15.6549 -1048.4399
25.7106 -15.472 -1048.4399
25.327 -15.1034 -1048.5
24.5226 -15.1451 -1048.6899
23.2495 -14.3624 -1049.08
22.7637 -14.434 -1049.28
20.370501 -13.705 -1049.76
19.8365 -13.4747 -1049.95
19.412201 -13.5133 -1050.24
18.844299 -13.1063 -1050.1
18.1758 -13.1654 -1050.13
17.633301 -13.032 -1050.4301
16.499201 -12.4339 -1050.62
15.2091 -12.1234 -1050.5699
14.1103 -12.002 -1050.98
13.7746 -11.4069 -1051.11
13.1941 -11.3735 -1051.33
12.5699 -11.3699 -1051.42
10.7135 -10.9584 -1051.3
9.2184095 -10.4393 -1051.6
8.06604 -10.5097 -1051.28
7.1711998 -10.0912 -1051.5
5.3043499 -10.0999 -1051.09
4.85852 -9.9047899 -1051.24
3.9558401 -10.0748 -1051.09
3.31616 -9.4934101 -1051.14
2.34131 -9.5408001 -1051.05
0.72293103 -9.4720802 -1050.58
-0.95346099 -9.1879597 -1050.38
-1.8731101 -9.3119497 -1050.14
-2.8650801 -9.34659 -1049.79
-4.85425 -9.1281996 -1049.46
-9.2730398 -9.6629601 -1047.26
-13.8692 -10.2532 -1044.85
-15.6897 -10.5308 -1043.58
46.2327 -27.808399 -1033.0699
45.404701 -26.992201 -1034.51
43.355202 -25.0149 -1037.1801
40.002499 -22.3109 -1040.41
39.619499 -21.724899 -1041.34
38.984699 -21.7332 -1041.54
37.416801 -20.6436 -1042.71
35.4697 -19.6175 -1043.9399
34.733101 -18.997801 -1044.33
33.2743 -18.1432 -1044.89
32.850101 -17.968901 -1045.25
31.8958 -17.8694 -1045.64
31.285 -16.8878 -1046.37
30.163601 -16.8985 -1046.62
28.8957 -16.2698 -1047.16
28.2281 -16.148001 -1047.1801
26.8799 -15.2556 -1047.96
26.4093 -15.1082 -1048.23
23.7922 -14.4168 -1048.87
22.972401 -13.6156 -1049.58
21.664101 -13.2721 -1049.1899
21.1563 -13.1292 -1049.5699
20.601 -13.1081 -1049.71
18.2083 -12.4561 -1050.09
17.7565 -12.0717 -1050.1
17.094999 -12.1253 -1050.1899
16.5135 -12.0546 -1050.42
15.36 -11.546 -1050.46
14.907 -11.4152 -1050.83
13.2924 -10.8334 -1051.1
12.4718 -10.7911 -1051.17
11.9229 -10.6462 -1051.21
11.3412 -10.3591 -1051.27
10.5143 -10.6559 -1050.97
9.1714497 -10.1182 -1051.26
7.6131902 -9.84235 -1051.21
7.1477098 -9.6568899 -1051.34
6.3845501 -9.7558899 -1051.13
4.8927302 -9.4260302 -1051.03
2.3610799 -9.3285799 -1050.53
1.70261 -9.1292105 -1050.9399
0.94351202 -8.7193003 -1050.77
-0.11557 -9.1538095 -1050.27
-1.83868 -8.8752403 -1049.98
-2.80655 -8.6697998 -1049.63
-3.77069 -8.6738901 -1049.58
-4.83041 -8.59021 -1049.13
-7.7666001 -9.0516996 -1047.7
45.319199 -26.548 -1034.16
44.5728 -25.9235 -1035.42
42.782299 -24.059601 -1037.79
41.185101 -22.6504 -1039.51
40.423401 -22.4529 -1040.03
39.566002 -21.730499 -1040.46
38.919701 -21.143 -1041.09
38.036098 -20.738899 -1041.51
35.483299 -19.0634 -1043.89
34.805099 -18.5418 -1044.09
34.145802 -18.3496 -1044.3101
33.280399 -17.7209 -1044.58
32.954899 -17.402399 -1045.1899
31.5916 -17.204 -1045.8
30.8522 -16.264601 -1046.45
30.246099 -16.2978 -1046.5601
29.5959 -16.0291 -1046.7
28.9007 -15.492 -1047.0699
26.9221 -14.7634 -1047.62
25.4977 -14.3811 -1048.5601
24.4098 -13.9196 -1048.53
23.8864 -13.8324 -1048.74
23.3918 -13.7235 -1049.08
22.899401 -13.191 -1049.0699
21.209 -12.6212 -1049.38
20.6043 -12.6682 -1049.42
19.5278 -12.1694 -1049.54
19.000401 -12.0417 -1049.89
17.1677 -11.5602 -1050.22
16.584499 -11.5669 -1050.24
15.156 -10.7457 -1050.9
14.5782 -10.7313 -1050.99
13.9494 -10.7985 -1051
13.1474 -10.2756 -1051.14
12.6524 -10.0495 -1051.3199
11.9917 -10.1271 -1051.0601
11.3882 -9.9008198 -1050.99
10.6854 -9.9319801 -1051.03
8.6410503 -9.4757099 -1051.16
7.9240699 -9.5490103 -1051.2
7.2785602 -9.0631704 -1051.3199
6.2899499 -9.3839703 -1050.6801
5.62637 -9.30896 -1050.97
4.9723501 -8.7013197 -1050.97
3.4679599 -8.75809 -1050.61
2.41873 -8.58566 -1050.65
-0.204041 -8.2887602 -1050.27
-0.70391798 -8.2575102 -1050.2
-1.77502 -8.3295603 -1049.78
-4.84866 -8.1728497 -1048.89
-12.1398 -8.9081402 -1045.58
-17.0931 -9.6661997 -1043.1
47.505699 -27.9545 -1031.39
46.453899 -26.500601 -1032.88
45.6474 -25.772699 -1034.3
44.4263 -24.5275 -1035.64
43.6036 -24.062901 -1036.5601
39.557701 -21.2915 -1040.25
39.132099 -20.496901 -1040.96
38.577599 -20.1646 -1041.33
37.7491 -20.0373 -1041.77
37.068501 -18.998199 -1042.8101
35.490101 -18.099001 -1043.42
34.834702 -18.0002 -1043.86
34.068501 -17.7173 -1044.12
33.403301 -17.034901 -1044.6
32.812698 -16.951099 -1044.97
31.462299 -16.216101 -1045.8101
30.767799 -15.9226 -1045.95
28.8923 -15.3538 -1046.54
28.3183 -14.9675 -1046.98
27.5222 -14.646 -1047.6899
24.4624 -13.4081 -1048.36
24.114901 -13.2442 -1048.49
23.0273 -12.6335 -1049.12
21.8195 -12.2792 -1048.9399
21.212099 -12.2686 -1049.04
20.7335 -12.1255 -1049.42
20.0562 -11.7428 -1049.66
19.6441 -11.5926 -1049.52
17.8724 -11.0773 -1049.73
17.196501 -11.1643 -1049.74
16.661699 -11.0051 -1050.08
15.8533 -10.2357 -1050.5
14.6732 -10.2546 -1050.74
14.0486 -10.2933 -1050.85
13.7409 -9.8309298 -1050.9399
12.6795 -9.5497704 -1051.08
11.5011 -9.2603798 -1050.96
10.037 -9.4110098 -1050.96
9.38727 -8.9165602 -1050.83
8.7253399 -8.9377098 -1050.9
7.9541302 -9.0072899 -1050.9399
7.1073899 -8.9539804 -1050.45
2.5181899 -7.9826398 -1050.5
1.9631 -7.9835501 -1050.36
-0.61187702 -7.4941101 -1050.2
-1.69846 -7.78125 -1049.5699
-3.0281401 -7.6458402 -1049.35
-3.89941 -7.9920998 -1048.98
-7.49084 -7.9982901 -1047.47
-8.6390104 -7.8273301 -1047.35
-11.818 -8.3166199 -1045.5601
-13.0671 -8.4653597 -1044.91
45.628899 -24.929899 -1034.49
44.518799 -23.9965 -1035.55
43.854301 -23.6716 -1036.23
41.351501 -21.230301 -1038.98
40.583099 -20.873199 -1039.77
38.408798 -19.6812 -1041.08
36.7262 -18.455601 -1042.5699
35.545601 -17.813601 -1043.26
34.7509 -17.2651 -1043.91
34.184101 -17.032301 -1044.14
33.496399 -16.4529 -1044.49
32.9953 -16.448 -1044.59
32.062302 -16.317801 -1044.99
30.8438 -15.3408 -1045.79
30.4039 -15.1489 -1046.21
28.488701 -14.4382 -1046.78
27.507601 -14.2459 -1047.28
27.1632 -13.6346 -1047.65
25.8843 -13.3252 -1047.8101
25.135201 -12.8703 -1048.14
24.0844 -12.6841 -1048.6801
23.0846 -12.1074 -1048.9301
21.923901 -11.6824 -1048.91
20.118 -11.2148 -1049.48
19.533701 -11.1249 -1049.46
19.2145 -10.8986 -1049.76
18.5186 -11.0243 -1049.72
17.340099 -10.5587 -1049.6801
16.564199 -10.0869 -1050.29
16.0229 -9.6219797 -1050.4
15.4059 -9.6241102 -1050.5601
14.8515 -9.5752001 -1050.65
14.3109 -9.4147596 -1050.7
13.5418 -9.15378 -1050.6801
10.9784 -8.8532696 -1050.66
8.8508902 -8.3392 -1050.8101
6.2352901 -8.3373699 -1050.28
5.6385798 -8.1370802 -1050.21
5.12357 -7.9707298 -1050.34
3.9770501 -8.1048899 -1049.77
3.1307399 -7.76718 -1049.96
0.102814 -7.0013099 -1049.84
-0.54620397 -6.9422898 -1050.0601
-2.90976 -7.1145601 -1049.15
-5.2139301 -7.0812402 -1048.5601
-8.3874197 -7.4723201 -1047.38
-9.9997301 -7.5282602 -1046.4
-11.5453 -7.72089 -1045.52
-13.1418 -7.70505 -1044.6
-14.9123 -8.3846998 -1043.73
-16.4102 -8.3530302 -1043.01
46.350201 -25.1583 -1033.2
44.590099 -23.552401 -1035.39
42.035702 -21.565901 -1038.24
41.351002 -20.802401 -1038.66
40.6521 -20.252399 -1039.75
39.238098 -19.448601 -1040.54
38.273899 -19.066299 -1041.17
37.152401 -17.982401 -1042.3101
36.378101 -17.8001 -1042.65
34.750301 -16.826599 -1043.5699
34.373199 -16.656099 -1043.9301
33.612701 -16.0618 -1044.46
32.6926 -15.6423 -1044.9
32.1609 -15.7119 -1044.89
31.075701 -14.7442 -1045.87
29.7397 -14.3916 -1046.09
29.116699 -13.8426 -1046.64
27.2012 -13.1238 -1047.27
26.0448 -12.5718 -1047.96
25.203699 -12.3688 -1048.03
24.128799 -11.8571 -1048.14
23.716499 -11.8268 -1048.49
23.049299 -11.7268 -1048.6
22.5161 -11.6405 -1048.84
21.961399 -11.1786 -1048.6899
21.2908 -10.9996 -1049.0601
20.8395 -11.122 -1049.0601
20.453501 -10.3617 -1049.4
19.6677 -10.4231 -1049.51
17.8235 -10.0258 -1049.7
17.1056 -9.7343397 -1050.03
16.642599 -9.4224195 -1050.36
16.014799 -9.1525602 -1050.2
14.8289 -9.0568199 -1050.59
12.9358 -8.4509897 -1050.6899
10.1995 -7.71878 -1050.52
9.36411 -7.9799199 -1050.52
8.9347496 -7.6580801 -1050.91
6.72998 -7.9230299 -1049.79
4.7544599 -7.3141198 -1050.1
2.43011 -7.2369399 -1049.96
1.45697 -7.1001601 -1049.41
-0.64465302 -6.6001902 -1049.64
-2.44049 -6.6454501 -1048.96
-7.2742 -6.888 -1047.08
-8.3338299 -6.8611798 -1047.1801
-11.4899 -7.1991 -1045.38
-12.909 -7.3075299 -1044.6801
-14.8882 -7.5167198 -1043.71
42.752201 -21.394699 -1037.37
42.1325 -20.7927 -1038.16
41.263599 -20.5345 -1038.38
40.711201 -19.8909 -1039.15
39.782501 -19.6264 -1039.9399
38.4856 -18.650801 -1040.63
37.911999 -17.865801 -1041.64
37.048698 -17.718399 -1041.76
36.3419 -17.4417 -1042.22
34.981701 -16.3943 -1043.3
34.380001 -15.8314 -1043.98
33.017399 -15.2108 -1044.67
31.119699 -14.2047 -1045.73
30.494301 -14.1019 -1045.8199
29.7815 -13.8879 -1045.9301
27.214899 -12.6082 -1047.28
25.961201 -11.6525 -1048.0601
24.8652 -11.8792 -1047.77
23.6814 -11.2058 -1048.26
22.595501 -11.12 -1048.66
22.027599 -10.6654 -1048.48
21.4753 -10.6089 -1048.76
20.9198 -10.5476 -1048.95
20.432899 -9.95819 -1048.97
19.630199 -10.0826 -1049.08
17.1455 -9.2968798 -1049.6801
16.6509 -9.1360197 -1050.15
14.8794 -8.8778696 -1049.74
14.576 -8.4014597 -1050.33
12.9634 -8.1224699 -1050.28
7.83182 -7.14114 -1050.08
7.4857798 -7.2218599 -1050.11
5.53613 -7.04773 -1049.7
4.8821101 -6.9612699 -1049.97
3.97311 -6.6784701 -1049.54
3.26437 -6.6511798 -1049.8101
2.7680399 -6.5368299 -1049.78
0.79406703 -6.49017 -1049.49
-0.0031433101 -6.1106 -1049.15
-1.94577 -6.5616798 -1048.79
-2.98206 -6.4135098 -1048.1801
-3.8660901 -6.4421101 -1048.29
-3.6677201 -5.77948 -1048.33
-4.7091699 -6.0506902 -1047.9301
-8.2225304 -6.2772799 -1047.08
-11.4599 -6.5662198 -1045.1801
45.026199 -22.694201 -1034.73
40.047798 -18.928699 -1039.6
38.740299 -18.159901 -1040.45
38.019901 -17.8263 -1041.2
37.198502 -17.0504 -1041.85
36.4049 -16.859301 -1042.08
34.894299 -15.6778 -1043.3199
34.308601 -15.5491 -1043.53
33.650902 -15.1205 -1044
33.177799 -14.8368 -1044.0699
31.8001 -13.9605 -1045.39
30.993799 -13.7467 -1045.41
30.568001 -13.6053 -1045.71
29.582399 -13.1719 -1045.76
29.1738 -12.9613 -1046.1899
28.3531 -12.6266 -1046.89
27.348499 -12.0816 -1047.04
24.997101 -11.2586 -1047.76
24.2437 -10.7844 -1047.84
22.5807 -10.712 -1048.29
22.188499 -9.94168 -1048.66
21.0114 -9.96558 -1048.83
18.8571 -9.3326998 -1049.3
17.9655 -8.7786903 -1049.77
17.1474 -8.8145399 -1049.41
15.4309 -7.97086 -1050.04
12.7716 -7.65973 -1050.15
11.1657 -7.5187702 -1049.78
10.5454 -7.4668002 -1049.78
10.1867 -7.2653799 -1050.3101
9.3111897 -7.0759602 -1049.9301
8.47754 -7.3513198 -1049.6801
7.9521499 -6.5550199 -1050.02
5.91818 -6.4881902 -1049.86
4.99155 -6.3888898 -1049.89
4.1670799 -6.09021 -1049.51
2.6175499 -6.1092501 -1049.78
0.97637898 -5.8407302 -1049.45
-0.87176502 -5.7601299 -1048.97
-2.6949201 -5.4367099 -1048.58
-6.8901401 -5.4675002 -1047.16
-11.4553 -6.1697998 -1044.83
-12.7676 -6.42908 -1044.6899
-15.7062 -6.5834699 -1042.98
-17.686501 -6.9060998 -1041.8199
48.056499 -25.5406 -1029.24
44.937401 -22.2976 -1034.39
43.099499 -20.486 -1036.76
42.460602 -20.2146 -1037.35
41.686501 -19.3918 -1037.74
39.4594 -17.694799 -1040.34
38.4683 -17.389099 -1040.73
38.0965 -17.212099 -1041.0699
37.3298 -16.456699 -1041.42
36.496399 -16.169001 -1042.09
35.7253 -15.8807 -1042.76
34.928799 -15.2249 -1043.08
34.322201 -15.1087 -1043.26
33.308399 -14.1837 -1044.15
32.417198 -14.0405 -1044.59
31.0839 -13.2194 -1045.36
29.853701 -12.9428 -1045.53
29.229401 -12.4621 -1046.05
28.7257 -12.4087 -1046.21
27.4039 -11.549 -1046.9301
23.774099 -10.213 -1047.84
23.2491 -10.1139 -1048.12
22.634501 -10.1968 -1048.1
21.5928 -9.5133104 -1048.4
20.986 -9.5809298 -1048.41
20.5805 -9.2788095 -1049
19.2026 -8.7982197 -1049.1801
17.2729 -8.1023903 -1049.45
16.6374 -8.0823698 -1049.59
15.9987 -8.0752296 -1049.73
10.7635 -6.80756 -1049.88
9.3303499 -6.5599098 -1049.8
6.9945102 -6.2651701 -1049.63
6.0038099 -5.9381099 -1049.8
5.0177598 -5.9498601 -1049.54
4.4252901 -5.3285198 -1049.6899
3.3006599 -5.7737699 -1049.3199
2.64957 -5.6532898 -1049.4399
1.26987 -5.4764099 -1049.15
0.102142 -5.48456 -1049.11
-0.88977098 -5.4203801 -1048.62
-3.7512801 -4.97791 -1048.37
-4.4707599 -5.2827501 -1048.0699
-11.2987 -5.5616498 -1044.88
-15.9664 -6.0878 -1042.63
42.466801 -19.583099 -1037.28
40.948399 -18.6283 -1038.0699
39.977501 -17.9144 -1039.51
38.8284 -17.1003 -1040.02
37.803398 -16.458401 -1041.3101
36.585499 -15.6733 -1041.9301
35.707298 -15.51 -1042.41
34.2402 -14.3318 -1043.75
33.784599 -14.0971 -1043.77
33.1665 -13.6858 -1044.26
31.656401 -12.8101 -1044.9399
31.184401 -13.0083 -1044.9
30.210899 -12.575 -1045.66
29.2264 -12.0062 -1045.75
27.7952 -11.316 -1046.1801
26.242599 -11.1182 -1046.84
25.872299 -10.3896 -1047.1
24.435699 -10.1725 -1047.5
23.325199 -9.5430899 -1047.99
22.630501 -9.5781603 -1047.96
22.195801 -9.4786997 -1048.3199
21.5149 -9.0478497 -1048.46
21.075001 -8.9628296 -1048.35
20.568899 -8.8217802 -1048.67
19.8055 -8.6252098 -1048.6899
17.8475 -8.0957003 -1049.34
17.3452 -7.5648799 -1049.34
16.0413 -7.5506001 -1049.58
13.1358 -6.6230202 -1049.86
12.2827 -6.6497202 -1049.96
11.5988 -6.2916298 -1049.76
10.8221 -6.3121901 -1049.74
8.6733704 -6.0884399 -1049.61
8.0883799 -5.9808698 -1049.89
7.4765301 -5.51474 -1049.79
6.0130601 -5.4983201 -1049.63
5.2000999 -5.3031301 -1049.52
1.92542 -5.18222 -1049.3
0.70422399 -5.27036 -1048.27
0.105255 -4.8732901 -1049.02
-2.6723299 -4.9306002 -1048.3199
-3.67258 -4.4949298 -1048.24
-4.3569598 -4.7548199 -1047.96
-7.7491798 -4.6522198 -1046.74
-12.1882 -5.2621799 -1044.4
-14.1096 -5.3860798 -1043.51
47.1395 -23.5243 -1030.7
45.995098 -22.713499 -1032.05
44.435299 -20.4471 -1035.2
43.370499 -19.7386 -1035.6801
42.419899 -19.145201 -1036.91
41.7472 -18.791401 -1037.63
41.0406 -18.025299 -1038.01
40.057899 -17.7321 -1038.66
39.5392 -16.8559 -1039.84
38.914902 -16.548201 -1039.96
38.147099 -15.9006 -1040.96
37.3288 -15.5605 -1041.34
36.628101 -15.2191 -1041.75
35.873001 -14.859 -1042.15
35.2761 -14.2521 -1042.9399
34.593601 -14.1667 -1042.98
33.811699 -13.4232 -1043.46
33.373798 -13.3235 -1043.7
31.138901 -12.2819 -1044.88
30.0793 -11.6805 -1045.58
29.349199 -11.3661 -1045.79
28.9156 -11.2204 -1046.1
27.513399 -10.3934 -1046.6899
26.933399 -10.4646 -1046.7
26.264799 -10.3224 -1046.75
24.463499 -9.5617704 -1047.72
23.943199 -9.0240202 -1047.62
23.4058 -8.9541903 -1047.86
22.230101 -9.0068703 -1048.03
21.128201 -8.4327097 -1048.09
20.6092 -8.2842398 -1048.41
20.0338 -8.2688904 -1048.55
19.517599 -7.7652898 -1048.53
18.9063 -7.7691002 -1048.66
18.0763 -7.61871 -1048.77
17.324499 -7.1642799 -1049.0699
16.148001 -6.9948401 -1049.54
15.4641 -6.7221398 -1049.25
14.8743 -6.60706 -1049.51
14.2337 -6.4504399 -1049.49
13.6192 -6.23068 -1049.47
11.7143 -5.6942101 -1049.7
10.7964 -5.9772301 -1049.33
8.7624502 -5.4210801 -1049.61
7.7573199 -5.1043701 -1049.77
6.7312002 -5.18716 -1049.4399
5.2484999 -4.7809401 -1049.3
2.9899299 -4.2716999 -1049.49
1.86127 -4.74646 -1048.9
-0.983917 -4.1964102 -1048.5601
-1.8092999 -4.62778 -1047.72
-3.6615601 -4.0325599 -1048.05
-4.2701402 -4.0300899 -1047.9
-7.06812 -4.2788701 -1046.3
-7.9777799 -4.2143602 -1046.54
-9.7818899 -4.6502399 -1045.0601
-14.1422 -5.0207801 -1043.1801
-15.5925 -5.13449 -1042.53
48.18 -24.446699 -1028.98
45.315899 -20.576401 -1034.2
43.572899 -19.0875 -1036.16
42.482201 -18.554399 -1036.76
40.729599 -17.3561 -1038.2
40.061199 -16.903601 -1039.1
38.186501 -15.8007 -1040.38
36.707199 -14.6591 -1041.64
34.6716 -13.6255 -1042.92
33.301399 -12.586 -1044
31.1665 -11.8048 -1044.6801
30.722 -11.6674 -1044.9399
29.923201 -10.8822 -1045.45
29.3706 -10.8874 -1045.48
28.9083 -10.779 -1045.79
28.4011 -10.7179 -1046.01
27.466299 -10.0036 -1046.3199
26.9715 -9.9105196 -1046.58
25.886299 -9.9082298 -1046.8101
25.267799 -9.2041302 -1047.25
24.6737 -8.9843798 -1047.42
23.414101 -8.6170998 -1047.67
22.888399 -8.4118299 -1047.79
22.3221 -8.3611498 -1047.98
21.7206 -7.96521 -1047.77
20.7647 -7.6365099 -1048.55
19.8608 -7.6960402 -1048.22
19.626101 -7.2004399 -1048.49
19.002899 -7.2336998 -1048.58
18.198799 -7.0794101 -1048.71
17.488501 -6.9916701 -1048.6899
16.158501 -6.61731 -1049.27
14.8671 -6.2251 -1049.23
13.7504 -5.8218398 -1049.4399
13.1429 -5.5452299 -1049.64
12.4165 -5.6518202 -1049.61
10.9505 -5.3426499 -1049.42
10.2187 -5.33075 -1049.55
9.8360596 -5.1991601 -1049.33
8.9243803 -4.94385 -1049.42
8.1882601 -5.0774798 -1049.34
6.7903399 -4.6497202 -1049.25
6.1452298 -4.5240798 -1049.53
5.2631502 -4.1293302 -1049.62
3.7390101 -4.24261 -1049.41
2.98825 -3.74792 -1049.26
-0.95431501 -3.7859199 -1048.28
-2.5903299 -3.84448 -1047.73
-3.3460701 -4.0282898 -1047.26
-9.67694 -3.9849501 -1045.09
-12.1111 -3.92822 -1044.48
-16.495199 -4.6342802 -1042.0601
-18.003901 -4.7888498 -1041.8101
49.945599 -25.5735 -1025.63
45.214699 -20.3575 -1033.59
44.459 -19.6588 -1034.53
42.511299 -18.1178 -1036.54
41.840599 -17.775299 -1037.26
40.794701 -16.8326 -1038.1
40.4575 -16.632601 -1038.54
39.409698 -15.6754 -1039.4
38.6772 -15.3606 -1040.11
38.2617 -15.2838 -1040.34
37.4543 -15.0674 -1040.88
35.8339 -14.0788 -1041.87
35.319901 -13.3207 -1042.36
34.714802 -13.1153 -1042.74
33.910599 -12.3609 -1043.14
33.070599 -12.1182 -1043.73
32.686798 -11.962 -1044.09
32.082901 -11.4704 -1044.54
31.247999 -11.2099 -1044.5601
30.760099 -11.1699 -1044.74
29.485901 -10.5451 -1045.3101
28.945601 -10.3015 -1045.53
28.2934 -9.8308697 -1046.0601
27.0312 -9.3361502 -1046.47
25.880199 -8.9582195 -1046.8199
24.5382 -8.4928303 -1047.29
23.9797 -8.5239 -1047.39
21.832701 -7.3769798 -1047.76
21.302999 -7.2611098 -1048.01
20.5457 -7.1977801 -1048.17
19.6485 -6.78122 -1048.3
19.0033 -6.7982202 -1048.33
13.6823 -5.2167401 -1049.1
13.199 -5.0450702 -1049.47
11.8273 -4.7072802 -1049.21
11.1812 -4.6023898 -1049.51
10.419 -4.7246099 -1049.5
9.7232704 -4.2948298 -1049.29
8.9086304 -4.2867098 -1049.46
7.6772799 -4.3575101 -1049.55
6.8014498 -4.0718398 -1049.26
5.3675199 -3.50208 -1049.21
4.4425998 -4.18402 -1048.36
2.7423401 -3.41043 -1049.01
1.94705 -3.56464 -1048.76
0.82864398 -3.8115799 -1047.86
-0.96023601 -3.4441199 -1047.5601
-1.88113 -3.61285 -1047.4301
-2.4709799 -3.2732799 -1047.59
-4.3075299 -3.3604701 -1047.33
-7.1807899 -3.3157301 -1045.72
-10.8562 -3.7983699 -1044.53
-15.4352 -4.25104 -1042.29
-16.4874 -3.79846 -1042.09
47.334999 -21.833599 -1030.28
45.166698 -19.5516 -1033.55
44.470402 -19.013201 -1034.42
43.570301 -18.119699 -1035.33
42.878101 -17.826799 -1036.02
41.218399 -16.489901 -1037.6801
40.082001 -16.0944 -1038.5699
39.041698 -15.0892 -1039.51
38.260502 -14.4113 -1040.3
36.892799 -13.4491 -1041.47
35.374802 -12.7966 -1042.12
34.7351 -12.3268 -1042.73
33.962299 -11.8284 -1042.98
33.512798 -11.752 -1043.1899
32.585201 -11.4007 -1043.72
31.320999 -10.6262 -1044.4301
30.9128 -10.446 -1044.85
30.397699 -10.4968 -1044.89
29.509399 -9.76581 -1045.1801
29.056999 -9.6099901 -1045.53
28.000601 -9.5369902 -1045.86
27.6609 -9.1750498 -1045.91
26.5741 -8.7599802 -1046.41
26.0952 -8.65277 -1046.66
25.134399 -8.06287 -1046.9301
24.782 -7.9349699 -1047.08
24.1099 -7.8736 -1047.05
23.540899 -7.4133301 -1047.28
23.0375 -7.3316698 -1047.5699
22.4151 -7.3942299 -1047.63
21.8848 -6.9012098 -1047.63
21.3496 -6.8695402 -1047.78
20.8284 -6.74823 -1048.09
20.315901 -6.6577101 -1048.35
19.682501 -6.3073702 -1048.1
19.087099 -6.2980299 -1048.27
17.9967 -5.5718699 -1048.5601
17.2721 -5.8272099 -1048.35
16.0375 -5.2588501 -1048.52
13.8795 -4.8069201 -1049
13.2708 -4.6535001 -1049.0601
12.6932 -4.5638099 -1049.0601
11.5851 -4.3473501 -1049.15
10.6087 -4.10571 -1049.25
9.1098003 -3.7497301 -1049.15
8.3442698 -3.8825099 -1049.05
6.2808499 -3.42535 -1048.96
1.87213 -3.2234199 -1048.37
0.111877 -2.8838501 -1047.97
-0.78408802 -2.7630899 -1047.64
-1.86798 -3.1441 -1047.21
-4.15097 -2.5994301 -1047.51
-8.5022001 -2.9216299 -1045.27
-9.6282997 -3.04742 -1044.5
-10.7522 -3.13293 -1044.52
-12.3043 -3.3115799 -1043.34
-13.6667 -3.4877901 -1043.29
-17.8431 -3.6903701 -1041.45
49.818901 -24.182301 -1025.75
47.389801 -21.2957 -1030.12
45.230202 -19.038099 -1033.45
44.468102 -18.554199 -1034.0699
43.607899 -17.653 -1035.2
42.8983 -17.3855 -1035.78
41.9645 -16.3438 -1036.77
41.212898 -15.7632 -1037.77
40.424702 -15.2934 -1038.36
39.816002 -14.8721 -1038.66
38.7831 -14.3032 -1039.8101
38.425098 -13.7075 -1039.92
37.5802 -13.5659 -1040.38
36.803001 -13.2322 -1041.0601
36.044899 -12.4223 -1041.55
35.4716 -12.2791 -1041.95
34.194 -11.294 -1043.11
33.5732 -11.1725 -1043.04
32.7201 -10.7454 -1043.66
30.866199 -10.0867 -1044.37
27.6308 -8.3743601 -1045.86
27.1527 -8.2931204 -1046.0699
26.6492 -8.23633 -1046.3
26.195601 -7.6672101 -1046.36
24.640301 -7.5372601 -1046.9301
23.5634 -7.01053 -1047.08
23.037001 -6.94382 -1047.3199
22.421 -6.99014 -1047.35
21.9676 -6.3579702 -1047.52
21.3666 -6.4039302 -1047.55
20.868601 -6.2725801 -1047.9301
19.577999 -5.7630901 -1048.0601
18.4853 -5.8291898 -1048.08
17.9998 -5.1637001 -1048.3
15.9884 -4.8690801 -1048.0699
15.5033 -4.6637602 -1048.51
13.2539 -3.9978001 -1049.02
12.7639 -4.0602999 -1048.8101
11.9383 -3.51175 -1048.98
9.6843004 -3.2737401 -1048.74
8.3637695 -3.2999301 -1048.98
5.4506502 -2.6568 -1048.85
4.4532499 -2.7448399 -1048.65
3.6001899 -2.46664 -1048.3199
0.94989002 -2.52615 -1047.71
-0.61624098 -2.0585599 -1047.72
-1.71457 -2.4751599 -1047.24
-2.34238 -2.2659299 -1047.15
-6.9451299 -2.3764601 -1045.59
-10.4234 -2.4556601 -1044.34
-12.0955 -2.56229 -1043.4399
-13.6093 -2.9230299 -1043.04
-13.8207 -2.80457 -1042.72
-16.7854 -3.0431499 -1041.39
-18.269699 -3.0976601 -1040.4
51.211601 -25.811399 -1022.72
46.324001 -19.509701 -1031.48
45.577702 -18.832199 -1032.77
44.557899 -17.850201 -1033.66
43.592999 -17.280701 -1034.89
42.8372 -16.538799 -1035.86
42.112701 -15.7571 -1036.86
41.239498 -15.6007 -1037.12
39.864399 -14.3885 -1038.45
39.100498 -13.7672 -1039.33
37.691502 -12.7852 -1040.5601
36.138802 -11.8058 -1041.51
35.638401 -11.5303 -1042.0699
34.875099 -11.2383 -1042.37
34.0229 -10.7687 -1042.55
33.685799 -10.5141 -1043.0699
30.3993 -9.0573101 -1044.63
28.4541 -8.2782898 -1045.41
27.8787 -7.9712501 -1045.74
27.141701 -7.8762498 -1045.84
26.5765 -7.6476402 -1045.92
26.191099 -7.2677302 -1046.0699
25.660299 -7.29004 -1046.2
24.833799 -6.9675002 -1046.54
23.575701 -6.5890498 -1046.8
23.021099 -6.5753798 -1046.96
22.496901 -6.00177 -1046.97
21.9706 -5.8983202 -1047.24
20.365801 -5.31885 -1047.6
19.8379 -5.2042799 -1047.85
19.176399 -5.2581801 -1047.87
18.4741 -4.99191 -1047.91
17.958401 -4.77527 -1047.86
17.3633 -4.6138301 -1048.2
16.6576 -4.8404799 -1048
16.2094 -4.2878399 -1048.36
15.5928 -4.35358 -1048.15
15.0755 -4.1859698 -1048.25
13.2238 -3.5062001 -1048.8
12.6139 -3.5125699 -1048.88
11.0345 -3.2332201 -1048.53
8.9807997 -3.05371 -1048.36
4.2901301 -2.552 -1048.04
3.6168799 -2.0325601 -1048.0601
2.7377 -2.16412 -1047.97
1.8916301 -1.8250999 -1047.6801
0.20260599 -2.0269499 -1047.71
-0.706909 -1.78571 -1047.1899
-1.3483599 -1.83884 -1047.1
-2.4754 -1.4952101 -1046.96
-4.0913701 -1.59332 -1047.04
-5.9124799 -1.75449 -1045.79
-6.7920799 -1.6713001 -1045.67
-8.1580801 -1.97083 -1044.91
-10.7283 -2.1517899 -1043.88
-16.7031 -2.4948699 -1041.21
-18.2841 -2.50034 -1040.42
43.732498 -16.686199 -1034.78
42.996201 -16.3468 -1035.48
42.011902 -15.407 -1036.28
41.402699 -14.8835 -1037.26
40.6768 -14.0489 -1038.29
38.498402 -12.6882 -1039.48
37.681099 -12.4678 -1040.01
36.8988 -12.1631 -1040.71
36.111401 -11.3688 -1041.12
35.7071 -11.0249 -1041.85
34.101398 -10.1715 -1042.46
33.675301 -10.0532 -1042.73
32.936001 -9.7396898 -1043.46
32.481998 -9.6340599 -1043.71
31.3866 -9.1821299 -1043.6899
30.9599 -9.0136099 -1044.08
27.900499 -7.5255098 -1045.48
27.155899 -7.45755 -1045.6
26.686399 -6.9500699 -1045.61
26.233 -6.7948899 -1045.92
25.8048 -6.6371198 -1046.3101
24.704399 -6.57199 -1046.55
24.3069 -6.2581801 -1046.51
23.641001 -6.0226102 -1046.71
23.112101 -5.9939899 -1046.9
22.489201 -5.62076 -1047.01
22.018 -5.4194899 -1047.04
21.4709 -5.38239 -1047.24
20.8459 -5.44559 -1047.26
20.4606 -4.6774302 -1047.53
19.825001 -4.76788 -1047.54
19.207001 -4.7740798 -1047.62
18.0495 -4.1855502 -1047.77
17.490499 -4.0936599 -1048.02
15.5785 -3.66571 -1048.01
14.9052 -3.73172 -1048.0699
13.5035 -3.32971 -1048.14
11.7694 -2.9927101 -1048.14
10.3632 -2.7427101 -1048.5
9.5975304 -2.4328599 -1048.22
8.9321899 -2.3971601 -1048.35
8.2863798 -2.3809199 -1048.5601
7.1641798 -1.90335 -1048.5601
5.2938199 -1.78821 -1048.17
4.4746399 -1.86411 -1048.17
3.58847 -1.64703 -1047.6801
2.8198199 -1.6319 -1047.79
1.91119 -1.3796099 -1047.83
0.79235798 -1.35123 -1047.55
0.27456701 -1.45883 -1047.5699
-0.65335101 -1.29028 -1046.9399
-3.98212 -0.97485399 -1046.95
-5.7978201 -1.17926 -1045.77
-8.2430696 -1.2172199 -1044.9301
-10.5985 -1.61707 -1043.74
-11.715 -1.51028 -1043.37
-16.675301 -2.0607901 -1040.9399
50.9688 -24.113899 -1023.65
43.650398 -16.2756 -1034.48
41.0536 -14.2304 -1037.4
39.855701 -13.3069 -1038.33
37.744701 -11.89 -1039.9
36.929401 -11.6449 -1040.46
35.766102 -10.6382 -1041.28
34.984001 -10.3887 -1041.9
34.3433 -9.8986797 -1042.38
32.9636 -9.2592802 -1043.26
32.501202 -9.1637897 -1043.5
31.928499 -8.7170696 -1043.41
31.0254 -8.5051003 -1043.92
30.625999 -7.9295702 -1044.0699
29.694901 -7.73734 -1044.5699
29.093399 -7.8835101 -1044.4399
27.384399 -6.7455702 -1045.58
26.849199 -6.2392602 -1045.73
26.123699 -6.4481802 -1045.76
25.579 -6.20926 -1046.03
24.739 -6.1256099 -1046.36
23.165899 -5.4193101 -1046.78
21.5394 -4.8139 -1047.09
20.476101 -4.2182899 -1047.25
19.9666 -4.06003 -1047.6
18.767099 -4.0583801 -1047.83
16.8682 -3.5246899 -1047.86
16.1793 -3.6861 -1047.87
15.6773 -3.0643899 -1047.96
14.9984 -3.12848 -1047.95
14.4715 -2.9646599 -1048.3199
13.0599 -2.7151201 -1048.0699
12.4987 -2.56567 -1048.37
11.7504 -2.26422 -1048.0601
10.8645 -2.15204 -1048.28
10.4144 -2.22031 -1048.36
9.7046804 -1.8775001 -1048.17
8.77631 -1.8143899 -1048.23
8.349 -1.4641401 -1048.16
6.8786302 -1.6238101 -1048.15
5.5130601 -1.37579 -1048.01
4.4457102 -1.50333 -1047.75
1.3418 -0.95355201 -1047.41
-0.53225702 -0.670654 -1046.84
-1.45316 -0.74420202 -1046.89
-2.44574 -0.95800799 -1046.6801
-3.8341401 -0.52179003 -1046.5601
-6.8111 -0.94400001 -1045.23
-11.8727 -1.0225199 -1042.99
-14.6463 -1.39426 -1041.66
-16.586201 -1.5323499 -1040.74
51.014999 -23.645 -1023.44
48.7183 -21.169201 -1027.2
47.514599 -19.4072 -1029.36
45.3964 -17.0674 -1032.72
43.724499 -15.6812 -1034.34
43.139198 -15.2126 -1035.23
42.1563 -14.2104 -1036.13
41.453999 -13.8762 -1036.8199
40.756001 -13.5341 -1037.5699
40.066799 -12.6358 -1038.12
38.6091 -11.5504 -1039.15
36.189499 -10.7286 -1041.0601
35.772301 -10.2328 -1041.02
34.998001 -9.9094801 -1041.67
34.115299 -9.3306303 -1041.9
33.7575 -9.06357 -1042.41
32.9328 -8.72995 -1042.96
32.566898 -8.6371803 -1043.4301
31.128 -7.92981 -1043.98
29.265499 -7.1090698 -1044.5699
27.8165 -6.4063702 -1045.22
27.258499 -6.4400902 -1045.3
26.323 -5.7251301 -1045.96
25.666 -5.6482201 -1045.91
24.787901 -5.5879202 -1046.1899
24.2955 -5.0246301 -1046.1801
23.691 -5.0657701 -1046.2
23.2241 -4.8863201 -1046.63
22.6535 -4.8762202 -1046.78
21.6215 -4.1897001 -1047.03
21.0119 -4.2684302 -1047.05
19.806801 -3.7485001 -1047.35
19.367001 -3.5864899 -1047.36
18.8001 -3.54126 -1047.59
17.566299 -3.0374801 -1047.59
16.339899 -2.9398201 -1047.72
14.4199 -2.6168799 -1047.92
13.2163 -2.0434899 -1048.14
12.5126 -2.1099501 -1048.13
11.7756 -1.81824 -1047.86
10.4332 -1.81973 -1048.15
9.6503296 -1.5537699 -1047.77
6.8373399 -1.25055 -1047.79
6.1189599 -0.92571998 -1047.96
5.4601402 -0.64376801 -1047.99
4.42975 -1.04282 -1047.52
2.0488601 -0.71310401 -1047.4301
0.38540599 -0.42056301 -1047.09
-1.18341 -0.38620001 -1046.64
-2.4122601 -0.45632899 -1046.4
-6.77704 -0.51919597 -1044.95
-7.9366102 -0.33245799 -1044.4399
-8.7333403 -0.41168201 -1044.2
-10.3184 -0.39831501 -1043.8
43.8382 -15.0252 -1034.36
42.166 -13.7254 -1035.83
41.4841 -13.286 -1036.75
40.792099 -12.9782 -1037.39
40.0522 -12.1834 -1037.79
39.334099 -11.8746 -1038.47
37.8283 -11.0282 -1039.5601
37.568298 -10.495 -1040.1801
36.217999 -10.2754 -1040.86
35.096001 -9.3161898 -1041.63
32.5555 -7.8211398 -1042.87
31.1721 -7.5960102 -1043.41
30.550501 -7.2893701 -1043.71
29.224501 -6.7974901 -1044.25
28.719101 -6.2361102 -1044.79
27.7209 -6.1633902 -1044.65
27.267599 -5.94907 -1045.04
26.8092 -5.72821 -1045.2
24.847401 -5.0289602 -1046.04
23.8307 -4.3737798 -1046.28
22.6742 -4.3565402 -1046.54
22.1429 -3.8185699 -1046.47
21.6546 -3.68607 -1046.78
21.0483 -3.73441 -1046.86
19.895901 -3.2830801 -1046.77
19.306801 -3.2118499 -1046.95
18.1646 -2.8024001 -1047.46
17.613701 -2.55563 -1047.4399
16.9121 -2.6347699 -1047.36
16.4051 -2.4171801 -1047.88
15.7555 -2.09341 -1047.58
14.8432 -2.02408 -1047.79
13.804 -1.78427 -1047.52
13.2397 -1.62485 -1047.91
12.5372 -1.68628 -1047.9399
12.0101 -1.57285 -1047.72
10.9538 -1.26413 -1047.92
9.7235403 -0.96102899 -1047.67
9.1293001 -0.84594703 -1047.99
8.3504601 -0.98333699 -1047.87
7.67307 -0.91256702 -1047.55
5.47012 -0.18896499 -1047.6899
4.6623802 -0.25671399 -1047.71
3.73703 -0.546417 -1047.38
3.0209999 0.0048828102 -1047.37
2.05127 0.0271606 -1047.27
-0.53219599 -0.19519 -1046.55
-1.52966 0.22439601 -1046.54
-6.7753901 -0.0548096 -1044.6801
-9.0746498 -0.115021 -1044.02
-11.5492 -0.087219201 -1042.88
-13.343 -0.46972701 -1042.0601
-15.0399 -0.57421899 -1041.01
-16.9165 -0.70443702 -1040.17
51.1259 -22.683901 -1023.08
47.701698 -18.5382 -1028.74
45.9086 -16.0655 -1032.16
44.174999 -14.7597 -1033.66
43.032398 -14.2684 -1034.58
42.251598 -13.1062 -1035.75
41.5592 -12.7609 -1036.48
39.395802 -11.3235 -1038.38
37.8512 -10.3741 -1039.34
37.139702 -10.1676 -1039.75
35.847698 -9.3109398 -1040.67
35.0853 -8.95819 -1041.2
33.8605 -8.1003399 -1042.13
32.685001 -7.18506 -1042.91
31.080799 -7.1247301 -1043.3199
30.6954 -6.9588299 -1043.6899
29.302799 -6.2899499 -1044.02
28.1698 -5.5085101 -1044.91
27.620701 -5.2049899 -1045.24
26.42 -4.6903701 -1045.21
25.8034 -4.6385798 -1045.67
24.843 -4.5789199 -1045.7
24.356199 -4.4758301 -1046.01
23.8486 -3.8397801 -1046.0601
23.260599 -3.9044499 -1046.1
22.689199 -3.87872 -1046.23
21.0919 -3.1744399 -1046.67
20.568899 -3.1453199 -1046.86
19.348301 -2.6554301 -1047.05
18.819201 -2.4946001 -1047.2
18.2253 -2.5606101 -1047.27
17.683399 -1.98059 -1047.35
16.9837 -2.12045 -1047.3101
14.8896 -1.56302 -1047.59
13.8961 -1.23624 -1047.47
13.2352 -1.21051 -1047.63
12.6119 -1.15009 -1047.79
11.1496 -0.91137701 -1047.49
10.4938 -0.86904901 -1047.7
9.75247 -0.49340799 -1047.41
8.9448204 -0.37585399 -1047.75
8.45154 -0.38357499 -1047.86
6.2051401 0.0151367 -1047.5601
5.53372 0.37750199 -1047.51
4.7481999 0.31692499 -1047.58
2.9634399 0.404419 -1046.96
2.15137 0.56793201 -1047.22
0.58563203 0.82800299 -1046.9399
-2.27087 0.63931298 -1046.15
-3.63394 1.31738 -1046.4399
-8.8979197 0.548096 -1044.1801
46.522701 -16.470501 -1031.39
45.617401 -15.3666 -1032.3
43.2519 -13.6043 -1034.65
42.638599 -13.1902 -1035.53
41.551899 -12.3434 -1036.2
40.8181 -12.0358 -1036.88
39.461498 -10.806 -1038.26
37.999401 -10.0201 -1039.23
36.726299 -9.4241304 -1040.24
34.713299 -7.87357 -1041.3101
33.130798 -7.30338 -1042.6
32.019402 -6.71735 -1042.99
31.368299 -6.4472399 -1043.25
30.7367 -6.4442701 -1043.52
29.8843 -5.65622 -1043.95
29.427401 -5.5584998 -1044.23
28.933399 -5.4672198 -1044.48
27.9002 -4.9231 -1044.53
27.645399 -4.83636 -1044.86
26.944201 -4.73206 -1045.08
25.868401 -4.19485 -1045.46
25.469801 -3.98523 -1045.49
24.4107 -3.89575 -1045.84
24.0508 -3.55832 -1045.9301
23.3239 -3.3278501 -1045.98
22.745501 -3.29071 -1046.13
22.2463 -3.1661999 -1046.45
21.7253 -2.67752 -1046.4
20.090401 -2.08606 -1046.71
18.9534 -1.9705499 -1047.13
18.298201 -2.0086701 -1047.24
17.6703 -1.78705 -1047.03
16.5439 -1.45331 -1047.28
15.2421 -1.06601 -1047.51
13.9868 -0.657745 -1047.42
13.1835 -0.84542799 -1047.21
12.7926 -0.53128099 -1047.63
11.3036 -0.215729 -1047.61
10.4847 -0.40759301 -1047.42
9.9023705 0.19220001 -1047.47
9.2453604 0.20156901 -1047.64
6.2936101 0.51928699 -1047.47
4.7736201 0.76312298 -1047.33
3.7076399 0.80136102 -1047.14
2.28302 1.0841399 -1047.04
1.5358 0.87191802 -1046.62
0.52923602 1.19067 -1046.55
-0.3396 1.06104 -1046.49
-1.27808 0.850586 -1046.3101
-5.5278902 1.1998 -1044.9399
-8.9322796 1.20093 -1043.85
-10.0698 1.2645299 -1043.41
-11.6596 0.56567401 -1042.49
-14.901 0.613464 -1040.85
46.6036 -15.8894 -1031.21
45.678299 -14.8189 -1032.1
42.3647 -12.0414 -1035.5601
40.8811 -11.3993 -1036.67
39.514301 -10.3815 -1037.95
38.700802 -9.7309904 -1038.38
38.0681 -9.47824 -1039.09
37.6143 -9.1604004 -1039.5601
36.793098 -8.4462004 -1039.91
35.977798 -8.1697397 -1040.51
35.162998 -7.9726601 -1041.04
34.6185 -7.4952998 -1041.41
33.858101 -7.21033 -1041.59
33.152 -6.8222699 -1042.39
31.2729 -5.9287701 -1043.21
30.1485 -5.4278302 -1043.5699
29.4501 -5.2845502 -1043.62
28.2341 -4.6172199 -1044.33
27.4375 -4.2951999 -1044.6
26.052299 -3.48016 -1045.16
25.2458 -3.5560601 -1045.3
23.530701 -2.8250401 -1045.99
22.821699 -2.7279999 -1046.05
22.248899 -2.7506399 -1046.17
21.8188 -2.0956399 -1046.37
21.231001 -2.1164601 -1046.48
20.147499 -1.60083 -1046.62
19.504601 -1.61307 -1046.8199
18.3265 -1.1965899 -1046.72
17.687901 -1.20102 -1046.77
17.202499 -0.93121302 -1047.34
16.4557 -1.12848 -1047.1899
16.0828 -0.800385 -1047.2
15.0792 -0.47665399 -1047.38
14.1245 0.025390601 -1047.48
13.339 -0.155945 -1047.29
12.2309 -0.0079345703 -1047.3101
11.9664 0.23745701 -1047.15
10.5646 0.154083 -1047.33
9.2737398 0.74066198 -1047.4399
8.6047697 0.777161 -1047.51
6.40274 1.07785 -1047.4
4.8670001 1.2900701 -1047.26
3.96838 1.24368 -1047
1.1401401 1.52881 -1046.55
-0.398743 1.56866 -1046.14
-1.33173 1.73206 -1046.0601
-1.82022 1.76218 -1045.98
-5.3713698 1.81171 -1044.58
-6.4238601 1.71515 -1044.66
-8.9879799 1.3908401 -1043.39
-15.1264 0.82269299 -1040.1
-16.669701 0.68423498 -1039.5699
51.3596 -20.476299 -1022.42
45.819302 -14.2187 -1032.17
45.089699 -13.9447 -1032.71
42.5979 -11.703 -1035.37
42.1203 -11.2986 -1035.9399
40.914902 -10.6286 -1036.41
40.186699 -10.2639 -1037.12
38.8517 -9.3964195 -1038.27
37.9221 -8.9671898 -1038.77
35.991001 -7.8361802 -1040.09
35.654701 -7.47012 -1040.74
33.919102 -6.6652799 -1041.4301
32.6619 -6.33215 -1042.25
32.105499 -5.74753 -1042.47
30.821501 -5.2944598 -1042.88
30.1584 -5.01718 -1043.16
29.4084 -4.6443801 -1043.61
28.924601 -4.5374098 -1043.83
27.6999 -3.8903201 -1044.3199
26.048599 -3.06073 -1044.88
25.539101 -2.9813499 -1045.1
24.8629 -2.60867 -1045.62
23.916599 -2.84885 -1045.64
23.384701 -2.3894 -1045.59
22.3566 -1.7403001 -1045.95
21.798599 -1.79715 -1046.13
21.255501 -1.67865 -1046.25
20.1534 -1.21518 -1046.54
18.9415 -1.1645499 -1046.58
17.783899 -0.59158301 -1046.75
17.189501 -0.50662202 -1047.01
15.1094 0.039001498 -1047.13
14.6139 -0.237396 -1046.95
14.0476 0.39718601 -1047.01
13.4112 0.40167201 -1047.1899
12.6929 0.32568401 -1047.15
12.0339 0.78491199 -1046.99
11.4129 0.89712501 -1047.3
10.5698 0.64141798 -1046.88
10.1199 0.87261999 -1047.08
9.3151903 1.30435 -1047.23
8.5939903 1.20602 -1047.24
6.3301101 1.43369 -1046.91
4.8663902 1.88327 -1046.9399
3.89554 1.9201 -1046.91
2.4098499 2.1830699 -1046.84
1.43716 2.18185 -1046.14
-0.199402 2.0852699 -1046.24
-2.99719 2.30948 -1045.5
-3.86444 2.3882799 -1045.42
-5.2691302 2.4679 -1044.63
-7.65311 2.3975201 -1043.8
-8.86905 1.9896899 -1043.33
-13.3029 1.6788599 -1041.16
-16.579599 1.24063 -1039.38
49.243999 -18.0446 -1025.86
46.651199 -14.4435 -1030.5601
44.921299 -12.6902 -1032.96
42.350498 -11.2385 -1035.01
40.308399 -9.8746004 -1036.78
39.575401 -9.3106098 -1037.85
38.828999 -8.6059303 -1038.16
38.293999 -8.2458801 -1038.86
36.885502 -7.3833599 -1039.92
36.002998 -7.24365 -1040.01
34.878799 -6.25528 -1040.83
33.988602 -6.0640001 -1041.34
33.457199 -5.5220599 -1042.0601
32.235699 -5.1014099 -1042.21
31.747 -4.9926801 -1042.49
30.9189 -4.7193899 -1042.78
29.4914 -4.01581 -1043.54
27.871099 -3.2316599 -1044.3199
26.525101 -2.71771 -1044.37
26.093599 -2.5824001 -1044.71
24.801201 -2.2690699 -1045.0699
24.169001 -2.1245999 -1045.15
23.493999 -1.77579 -1045.62
22.878 -1.86783 -1045.61
21.8699 -1.19958 -1045.97
21.2721 -1.23016 -1046.04
20.7383 -0.74615502 -1045.92
20.218201 -0.60656703 -1046.22
19.496799 -0.79327399 -1046.08
19.0366 -0.138367 -1046.24
17.966499 -0.059295699 -1046.76
17.166401 -0.15771499 -1046.63
16.709 0.085357703 -1046.66
15.9713 0.40621901 -1046.71
14.0741 0.88119501 -1046.73
13.532 0.86041301 -1046.98
12.8103 0.96517903 -1047.14
12.165 1.5308501 -1047.1
11.3972 1.3256201 -1046.9301
10.7029 1.30444 -1046.88
10.2079 1.42957 -1046.97
9.3579102 1.83081 -1047.04
8.6020498 1.62885 -1046.8
8.0482798 1.69354 -1046.77
6.9201999 1.83463 -1046.67
6.4950299 2.0935099 -1046.9
5.2904701 2.0016201 -1046.46
4.9474502 2.45944 -1046.88
4.0020399 2.10776 -1046.54
3.4679 2.5257001 -1046.66
2.4514799 2.6517301 -1046.55
1.28003 2.6114199 -1046.1899
-0.21273801 2.474 -1045.92
-2.7648301 3.12796 -1045.3101
-6.2940998 2.7118499 -1044.02
-7.56598 2.90027 -1043.5601
-8.9014597 2.5079999 -1042.88
-10.2972 2.526 -1042.45
-11.714 2.39487 -1041.79
-12.6917 2.3322401 -1041.36
50.492699 -18.7642 -1023.38
46.694801 -13.9464 -1030.4399
45.026299 -12.3486 -1032.66
43.462002 -11.5032 -1033.77
40.999298 -9.5693398 -1036.0699
40.543098 -9.0376596 -1037.03
39.795799 -8.6597605 -1037.48
38.8825 -8.0309095 -1038.05
36.926701 -6.8134198 -1039.4399
36.224201 -6.5853601 -1039.97
34.843399 -5.8470502 -1040.84
34.216301 -5.5166001 -1041.22
33.566101 -4.9158301 -1041.92
32.8582 -5.0536799 -1042.14
32.225399 -4.68466 -1041.9
31.7717 -4.4956698 -1042.25
30.895 -4.3024902 -1042.8101
30.424 -3.7730701 -1042.78
30.0529 -3.5137601 -1043.28
29.0116 -3.4527299 -1043.5601
28.5415 -2.9730201 -1043.55
27.235399 -2.6442299 -1044.0601
26.100599 -2.1659501 -1044.5
25.6423 -1.96603 -1044.88
24.0504 -1.4046299 -1045.23
23.504801 -1.36786 -1045.41
23.001301 -0.799438 -1045.42
22.4405 -1.00174 -1045.41
21.853001 -0.77813703 -1045.62
20.8447 -0.34429899 -1046.02
20.1411 -0.29718 -1045.76
19.661301 -0.096588098 -1046.22
18.5137 0.49896199 -1046.35
17.866199 0.40301499 -1046.3199
17.255501 0.465363 -1046.5
16.282 0.91540498 -1046.72
14.7505 0.94906598 -1046.77
13.6271 1.4612401 -1046.88
13.0028 1.46732 -1046.75
11.4435 1.87628 -1046.72
10.8044 1.87518 -1046.77
9.3227797 2.2234499 -1046.6899
8.77808 2.3249199 -1046.85
7.0942998 2.34882 -1046.36
6.6203599 2.7039199 -1046.8199
5.6563702 2.7804599 -1046.4
4.8954501 2.73441 -1046.4399
3.2186899 2.9832201 -1046.14
2.4848299 3.1485901 -1046.28
1.60217 3.34793 -1046
-0.16098 3.0217299 -1045.76
-1.1069 3.3299899 -1045.53
-2.2509501 3.37994 -1045.27
-5.1487398 3.6285701 -1044.38
-6.5121198 3.02316 -1043.61
-7.5905199 3.4002399 -1043.28
-11.6594 2.9256599 -1041.55
-14.7923 2.59729 -1039.78
50.853802 -18.440001 -1022.86
49.355202 -16.600901 -1025.41
48.3624 -15.6793 -1027.16
45.176102 -11.5455 -1032.88
44.1371 -11.5097 -1033.08
41.1763 -9.3302898 -1035.72
40.467098 -8.7872896 -1036.4301
39.9193 -8.6174297 -1036.87
39.099098 -7.8238502 -1037.67
37.794998 -6.7286401 -1039.11
36.357101 -5.9860501 -1039.9
35.744202 -5.9310899 -1040.13
34.2276 -5.1147799 -1040.83
33.7383 -4.7259798 -1041.46
32.455299 -3.9490399 -1042.23
29.7973 -3.10571 -1042.98
28.076401 -2.4006 -1043.6801
26.6175 -1.73911 -1044.12
26.1408 -1.71558 -1044.28
25.223801 -0.866638 -1044.85
24.3468 -1.05869 -1044.85
23.514299 -0.88406402 -1045.14
22.946301 -0.43911701 -1045.01
22.5261 -0.46771199 -1045.3101
18.571301 0.86917102 -1046.28
18.068001 1.05954 -1046.25
16.729099 1.26666 -1046.48
15.535 1.5661 -1046.5
13.1443 2.12448 -1046.78
10.8403 2.33517 -1046.51
10.1252 2.4321599 -1046.9
9.4481201 2.82077 -1046.7
8.0518799 3.1552401 -1046.55
4.8895302 3.1702001 -1046.1801
4.22296 3.3622701 -1046.59
0.0173035 3.8849499 -1045.78
-11.439 3.3276999 -1041.5601
50.8167 -18.0641 -1022.58
44.426201 -10.799 -1033.25
43.648602 -10.5329 -1033.86
42.975498 -9.7035198 -1034.28
40.6339 -8.1528902 -1036.48
40.0154 -7.5322299 -1037.36
37.758701 -6.4742699 -1038.53
36.117901 -5.5957599 -1039.49
35.741798 -5.44629 -1039.8199
34.991901 -4.9240098 -1040.4399
34.069801 -4.5308199 -1040.75
30.955999 -2.93185 -1042.22
30.536699 -2.7695301 -1042.55
30.0769 -2.6681499 -1042.8199
28.5853 -2.08847 -1043.29
27.9538 -1.92764 -1043.4399
27.1651 -1.72183 -1044.05
26.6451 -1.25284 -1043.91
26.191299 -1.08453 -1044.22
25.6394 -1.1089799 -1044.34
24.465099 -0.475189 -1044.85
23.869101 -0.30743399 -1044.97
22.4771 0.22116099 -1045.16
22.004299 0.389099 -1045.5
21.3365 0.24426299 -1045.4
20.3207 0.92919898 -1045.65
19.8002 0.83929402 -1045.74
19.186701 1.03455 -1045.85
17.5879 1.63818 -1046.3101
17.003901 1.72903 -1046.58
16.4625 1.8505599 -1046.89
15.2479 1.95374 -1046.22
14.8342 1.96594 -1046.27
13.5222 2.41873 -1046.26
12.207 2.4575801 -1046.55
11.4818 2.7709401 -1046.3
10.8589 2.71661 -1046.23
9.4182701 3.1619 -1046.36
8.8506498 3.23523 -1046.4301
7.25595 3.4399099 -1046.22
6.5831599 3.5185499 -1046.48
5.7097502 3.3209801 -1046.28
5.1791701 3.82864 -1046.3
4.10956 3.8651099 -1046.05
2.96033 3.7961099 -1045.63
-1.02429 4.3686199 -1044.95
-5.1529498 4.0754099 -1044.03
-6.5330501 4.29776 -1043.46
-7.5597801 4.2355299 -1043.0699
-8.6749897 4.2384 -1042.6899
-11.0377 3.9433899 -1041.46
-13.0614 3.59811 -1040.27
-20.119801 2.1949201 -1035.87
51.2006 -17.755699 -1022.03
44.951099 -10.3508 -1032.88
44.287701 -9.8201303 -1033.6801
43.426399 -9.79883 -1034.11
41.7701 -8.9063997 -1034.88
40.749199 -7.7793899 -1035.92
39.9893 -7.2810702 -1036.75
36.8941 -5.9089098 -1038.76
36.077801 -5.2382202 -1039.09
35.782902 -4.9117098 -1039.6801
35.059799 -4.4059401 -1040.26
34.5369 -4.13693 -1040.33
32.932598 -3.1744399 -1041.37
32.341599 -3.18927 -1041.47
31.009899 -2.3778701 -1042.11
30.138 -2.1145301 -1042.74
29.209101 -1.89548 -1043.3
28.0261 -1.4655499 -1043.23
27.6068 -1.3994401 -1043.48
26.1989 -0.63189697 -1043.99
25.7283 -0.41586301 -1044.3
25.203199 -0.156891 -1044.6
24.591101 -0.0710449 -1044.14
24.158501 0.16500901 -1044.71
21.989201 0.813995 -1045.17
21.513399 0.78149402 -1045.13
20.9055 0.88882399 -1045.51
20.3232 1.37466 -1045.34
18.509899 1.65311 -1045.75
17.669901 2.23874 -1046.17
17.0895 2.3292201 -1046.42
16.495399 2.37152 -1046.61
15.6535 2.5683899 -1046.15
14.9403 2.56775 -1046.25
14.3549 2.6795299 -1046.58
12.911 2.9574299 -1046.26
12.2407 2.9520299 -1046.4301
11.5473 3.29532 -1046.21
10.0815 3.57248 -1045.96
9.4716196 3.6913099 -1046.24
8.9486103 3.7706299 -1046.3199
8.0516996 4.0084801 -1046.05
7.2687702 3.90271 -1045.9399
6.49789 3.8482101 -1046
3.70996 4.4378099 -1045.88
2.6861601 4.5894499 -1045.8101
1.59885 4.6835299 -1045.09
0.46789601 4.5653701 -1045.15
-0.071227998 4.5148301 -1045.0699
-1.72455 4.9696698 -1044.92
-4.0069599 4.8608098 -1044.1
-5.0576501 4.7369099 -1043.9399
-7.5219102 4.6670499 -1042.84
50.901501 -17.0618 -1022.24
48.693298 -14.4384 -1026.14
45.996498 -11.2844 -1030.9399
44.987701 -9.8530903 -1032.61
43.958199 -9.3497601 -1033.67
40.024101 -6.8837299 -1036.49
39.275002 -6.71735 -1036.92
38.655499 -5.8398099 -1037.8
37.7155 -5.7045898 -1037.96
37.016201 -5.2878399 -1038.8199
35.828701 -4.4078698 -1039.59
34.572399 -3.67905 -1040.16
30.7477 -1.7623301 -1042.4301
30.152599 -1.66714 -1042.47
28.7068 -0.95437598 -1042.98
28.1646 -0.88641399 -1043.24
27.184999 -0.77416998 -1043.5699
26.282 -0.023101799 -1043.91
25.740499 -0.046050999 -1043.97
25.173401 -0.0150146 -1044.1801
24.167 0.64266998 -1044.47
23.624901 0.69632 -1044.64
22.525801 0.79208398 -1045
21.910601 1.17688 -1044.7
21.484501 1.43512 -1045.1801
