# .PCD v0.7 - Point Cloud Data file format
VERSION 0.7
FIELDS x y z
SIZE 4 4 4
TYPE F F F
COUNT 1 1 1
WIDTH 1269
HEIGHT 1
VIEWPOINT 0 0 0 1 0 0 0
POINTS 1269
DATA ascii
0 0 0
3.3634 -78.022697 -983.52002
9.4970999 -76.306099 -981.836
0.049743701 -77.459 -983.57898
-3.8174 -77.922699 -984.45099
-2.0209401 -77.343102 -983.90399
0.68477601 -76.921898 -982.71698
-1.85791 -76.756302 -983.45599
1.1750799 -76.393097 -982.25598
3.96279 -75.937698 -981.54303
-1.39161 -75.682404 -982.33698
-0.77301002 -75.5187 -982.34399
3.50067 -74.695297 -981.17297
0.868164 -74.657402 -981.45398
2.09461 -74.705902 -981.02899
-1.09033 -73.920998 -981.32397
-2.4856 -73.591698 -981.39398
-1.63494 -73.384201 -980.88898
-3.2599599 -73.331497 -981.258
-1.64893 -72.839897 -980.75897
-0.264893 -72.888802 -980.17798
1.97394 -72.170403 -979.71198
-3.1168201 -72.523697 -980.922
-1.77573 -72.229301 -980.21301
-3.22455 -71.974602 -980.70801
-0.85698801 -71.692001 -979.46002
2.27845 -71.2509 -978.82397
-2.8870599 -71.600304 -979.974
-1.18683 -71.067596 -979.51501
-0.45109501 -71.110603 -978.995
1.09369 -70.619598 -978.58197
1.66449 -70.515099 -978.73199
-1.86228 -71.048401 -979.35797
-1.46242 -70.508499 -979.11798
-2.45012 -70.459503 -979.10498
-1.80084 -70.164902 -979.12598
4.0568199 -69.096199 -977.53998
9.3207397 -67.563797 -976.64801
-4.1192002 -69.493599 -979.39899
-2.4925499 -69.200203 -978.76099
-1.81238 -69.078903 -978.573
0.374091 -68.894096 -977.56702
2.00823 -68.4105 -977.06
-3.05548 -68.755501 -978.61298
-1.6624 -68.264297 -977.80103
-2.30688 -68.013702 -978.05603
2.46854 -67.355103 -976.54303
-2.72734 -67.672203 -977.716
-2.1743701 -67.685997 -977.383
2.41113 -66.738701 -976
-5.1578999 -67.383202 -978.47601
-3.58673 -67.088898 -977.83301
-2.17468 -66.8116 -977.36499
2.3727601 -66.209198 -975.94202
-4.4528899 -66.481499 -977.659
-3.35653 -66.477898 -977.15002
-2.8201301 -66.512604 -976.98199
-4.93964 -66.226898 -977.76599
-2.5652499 -65.806396 -976.84802
-1.83569 -65.986801 -976.40198
0.63859099 -65.514099 -975.68799
-1.6340899 -65.1427 -976.245
0.59113002 -64.974701 -975.32202
-5.0618401 -65.295197 -977.03802
-1.47848 -64.873497 -975.927
3.2182801 -63.9669 -974.52502
-3.7899201 -64.465698 -976.44598
-2.78497 -64.317497 -976.01001
21.690901 -59.878601 -975.15997
-4.4763799 -64.058998 -976.45697
-3.8282499 -63.952099 -976.23901
-2.23523 -63.680599 -975.65997
-1.45276 -63.538101 -975.40503
17.003599 -60.2141 -973.76801
18.4338 -59.9608 -974.31799
19.735399 -59.705502 -974.43701
20.686199 -59.538399 -974.76801
-4.5300899 -63.4925 -976.22998
-2.0529301 -63.2118 -975.112
-1.60544 -63.191299 -974.98102
14.7836 -60.070999 -973.33099
15.6078 -59.822701 -973.53101
-5.14117 -63.043598 -976.15698
-2.5921299 -62.613499 -975.12299
-2.1015601 -62.6134 -974.74701
7.1680298 -60.880402 -972.80103
10.799 -60.230301 -972.73102
12.8935 -59.6381 -973.07202
15.5828 -59.213799 -973.22101
5.4950099 -60.7929 -972.672
7.2595801 -60.375099 -972.84802
8.8478603 -59.872299 -972.284
10.0797 -59.791302 -972.66998
11.0748 -59.501099 -972.72699
6.6806502 -59.794899 -972.60498
7.1424599 -59.702999 -972.50897
9.9112501 -59.212101 -972.737
-0.80169702 -60.600601 -973.42999
-0.12323 -60.4571 -973.26898
0.58422899 -60.344002 -973.112
1.29731 -60.0737 -972.74799
-0.929389 -59.926701 -973.35999
-0.407583 -59.956001 -972.89899
5.5719399 -59.1437 -972.64899
-1.59821 -59.683701 -973.33502
-0.85190898 -59.368401 -973.32397
-2.3341501 -59.289299 -973.42798
-1.6934201 -59.187 -973.29303
1.03265 -58.722301 -972.927
-6.7765498 -59.562099 -974.61798
-6.0498099 -59.654999 -974.17999
-5.12183 -59.258099 -974.02899
-4.39148 -59.130901 -973.81097
-2.30532 -58.747601 -973.32098
-1.84571 -58.729599 -973.15698
-1.08514 -58.5345 -973.19
0.37066701 -58.251499 -972.91998
-7.5726299 -59.1679 -974.76398
-6.8156099 -59.0144 -974.52002
-4.4988999 -58.619701 -973.84198
-3.2128899 -58.3643 -973.565
-0.896056 -58.2337 -973.05298
-9.3131704 -58.9095 -975.362
-8.3619404 -58.504002 -975.26001
-7.3963099 -58.560699 -974.87097
-6.9589701 -58.570301 -974.77899
-6.1044302 -58.3363 -974.26501
-5.4802098 -58.022499 -973.78302
-4.70398 -58.064701 -973.90601
-2.5320401 -57.657101 -973.27899
-0.95893198 -57.206402 -972.79401
-10.1574 -58.443401 -975.61298
-9.4454298 -58.332699 -975.37299
-8.65131 -58.168201 -975.09601
-7.0017099 -57.876801 -974.53003
-5.2602501 -57.571899 -973.88202
-4.9611301 -57.556599 -973.68201
-4.0114102 -57.335201 -973.53302
-1.90363 -57.129299 -972.53998
-0.32360801 -56.760799 -972.49103
1.22764 -56.7621 -971.92798
-9.5944796 -57.7365 -975.44702
-7.8277001 -57.437801 -974.72101
-6.9553399 -57.4692 -974.29797
-6.06112 -56.9641 -973.67401
-5.5290499 -57.003899 -973.841
-4.9864602 -57.019901 -973.37598
-3.88007 -56.811401 -973.23602
-2.4340799 -56.519699 -972.77197
-0.99379098 -56.653999 -972.31201
7.1971402 -54.8965 -970.93799
-5.28333 -56.4277 -973.45203
-4.5497398 -56.2911 -973.19202
-2.43086 -56.040199 -972.271
-1.6167001 -55.811901 -972.28601
5.2829299 -54.754501 -970.56
-5.30896 -55.868999 -973.24799
-1.65552 -55.263401 -972.09003
-3.8954501 -55.1045 -972.57098
-2.2556801 -54.849201 -971.987
-1.58521 -54.734699 -971.83002
2.06848 -54.1021 -970.97699
2.6485 -54.0867 -970.565
10.4917 -52.643902 -969.88501
12.4539 -52.3395 -969.49402
-6.0506601 -54.973099 -973.09399
-4.3391099 -54.724098 -972.42902
-3.6763899 -54.588299 -972.229
10.7619 -52.144299 -969.47101
11.1951 -52.075298 -969.43103
-4.5980802 -54.275398 -971.961
-0.075983301 -53.387402 -970.65601
5.1399498 -52.585602 -969.797
10.5743 -51.680901 -969.45502
12.2738 -51.368801 -969.323
14.2598 -51.029099 -969.27698
14.8744 -50.936798 -969.31299
-5.10742 -53.8032 -972.29901
-4.4082599 -53.686199 -972.07703
-3.5625701 -53.7742 -971.65503
7.8682599 -51.674999 -969.30798
14.7869 -50.431499 -969.17401
15.9348 -50.2346 -969.26202
12.2181 -50.2752 -968.89301
14.9264 -49.9058 -968.94397
16.453501 -49.619301 -969.15002
17.8104 -49.543999 -969.15198
19.290199 -49.1418 -969.57202
-5.2183199 -52.593498 -971.45697
-3.6176901 -52.691002 -971.32501
-2.1996601 -52.168701 -970.448
-1.13464 -52.068699 -970.52899
0.83923298 -51.7215 -970.15802
12.2536 -49.781502 -969.02002
-5.67834 -52.248001 -971.802
-4.87885 -52.102299 -971.495
-2.11865 -51.655602 -970.672
1.5952801 -51.047401 -969.776
6.7292199 -50.487598 -968.87701
-7.5299101 -51.969601 -972.39301
-5.8226099 -51.498901 -971.39697
-4.9232798 -51.542999 -971.33002
-2.71503 -51.181099 -970.58899
-2.22475 -51.141998 -970.117
12.2791 -48.6688 -968.62402
-6.50879 -51.234299 -971.71399
-4.224 -51.068901 -970.69501
-3.5504799 -50.7085 -970.69598
9.1624699 -48.456699 -968.15503
-4.1304302 -50.257198 -970.64502
-2.0423601 -49.9431 -970.04901
-1.30951 -49.816399 -969.83698
-0.26783499 -49.5951 -969.39502
-0.49328601 -48.664902 -969.23602
1.51587 -48.298901 -968.89001
3.6818199 -47.9758 -968.41699
-7.1740699 -49.236698 -970.88397
-4.1400099 -48.769798 -970.12701
10.2553 -46.408001 -967.32898
-5.4491601 -48.442299 -970.30798
-3.7952099 -48.3297 -969.62299
-3.2725101 -48.309299 -969.39899
-1.43646 -47.891602 -968.935
3.68805 -46.960899 -968.06598
9.0885296 -46.323502 -967.22998
-5.4593601 -47.716801 -969.91498
-4.6683302 -47.796299 -969.86603
-1.93454 -47.325298 -968.74701
14.4771 -44.6712 -966.76898
-2.8747599 -46.768902 -968.88599
-1.76337 -46.808998 -968.69897
1.07971 -46.332001 -968.13202
6.49966 -45.667702 -967.30103
-7.0293002 -47.070099 -970.073
-4.7590299 -46.669899 -969.53802
-0.409363 -45.996498 -968.22601
3.69256 -45.504902 -967.33398
6.40277 -44.893299 -967.04999
-5.3501601 -46.1996 -969.49799
-3.8843701 -46.190201 -968.82501
-3.3705201 -46.212299 -968.80402
-2.90007 -45.7225 -968.43103
-1.87317 -45.6674 -968.40601
-0.44927999 -45.429798 -968.10901
3.6480601 -44.934799 -967.17999
4.8389902 -44.591301 -967.23499
6.4272499 -44.003799 -966.729
-5.5023398 -45.6096 -969.14398
-3.67169 -45.382599 -968.67603
-2.0286 -45.251301 -968.11102
8.5876503 -43.411598 -965.98901
-4.4524398 -45.111698 -968.57098
4.3549199 -43.5518 -966.85999
6.4369998 -43.466499 -966.18402
7.73984 -42.956902 -965.565
8.6242104 -42.861599 -965.78699
-8.5081797 -45.045502 -969.92902
-7.72363 -44.909 -969.74799
-7.0396099 -44.8018 -969.56897
8.6656504 -42.338501 -965.62097
-9.7598896 -44.7379 -970.36603
-7.0627499 -44.434601 -969.24103
0.97339702 -43.162102 -966.33301
15.1182 -40.770302 -965.52399
-9.5184603 -44.369701 -970.10699
-7.8344698 -43.929699 -969.565
15.2395 -40.274899 -965.32898
-9.5127602 -43.676201 -969.93103
4.47153 -41.2015 -965.09802
15.3825 -39.670101 -965.04901
15.3737 -39.108501 -965.10303
-10.8369 -42.778801 -970.04498
-10.437 -42.716 -970.021
0.90606499 -41.032501 -965.59198
3.46472 -40.618 -965.328
8.6537399 -39.8512 -964.62402
15.3755 -38.574299 -964.90198
2.38802 -40.572102 -965.07599
2.8428299 -40.156101 -965.263
3.39709 -40.037201 -965.21399
15.2866 -38.156601 -964.80701
-9.3742104 -41.4384 -969.35199
-8.5104904 -41.196301 -969.06403
-2.79706 -40.3298 -965.98102
8.6091003 -38.734798 -964.258
15.3383 -37.507198 -964.41101
-12.032 -41.066101 -970.32501
15.8742 -37.030201 -964.09003
-1.3523099 -39.303299 -965.26001
8.6511602 -37.687698 -964.32599
9.5936899 -37.397099 -964.51202
15.1545 -36.4879 -964.45502
38.435699 -32.3503 -973.81403
-2.05212 -38.705601 -965.586
0.80584699 -38.296299 -964.92603
3.38428 -37.890598 -964.59601
8.6457396 -37.1376 -964.03998
14.1006 -36.428799 -964.37201
-1.91278 -38.212601 -965.34399
8.4804096 -36.574501 -964.20203
16.8423 -35.228401 -963.93103
-4.2739401 -38.077702 -965.63898
2.6382401 -37.005798 -964.47601
3.2584901 -36.905499 -964.40601
4.5471802 -36.735901 -964.237
17.0952 -34.698299 -964.14099
-3.57214 -37.409302 -965.633
-1.39109 -37.194599 -964.698
-0.69842499 -37.015701 -964.86298
0.82712799 -36.742599 -964.40802
-4.7776499 -37.101501 -965.729
-3.35883 -36.9039 -965.33698
-1.92443 -36.613201 -964.953
-0.805875 -36.667 -964.60797
0.71777302 -36.289799 -964.44202
4.3744302 -35.896801 -964.11102
6.16083 -35.414902 -964.203
-2.0522499 -36.148701 -964.90802
2.73195 -35.298901 -963.71301
3.2460401 -35.346802 -964.021
-4.3231902 -35.978699 -964.95001
-3.34287 -35.5308 -964.85602
-2.72296 -35.668701 -964.91199
-2.0290501 -35.571899 -964.74597
0.76281297 -35.219002 -963.91302
3.3868999 -34.745098 -963.867
4.4029398 -34.850899 -963.698
-5.3906898 -35.415199 -965.32703
-3.3040199 -35.178501 -964.85699
-0.87630099 -34.595402 -964.35999
3.15131 -34.2201 -963.92999
-5.5935102 -34.9412 -965.34003
-5.4901099 -34.384102 -965.14099
-4.90979 -34.2999 -965.039
-3.4779699 -34.104 -964.64099
-2.8253801 -34.028801 -964.49799
-0.79467797 -33.7052 -964.091
1.2907701 -33.3881 -963.80798
8.5018196 -31.815001 -962.82703
-2.46368 -32.941601 -964.14001
3.26211 -32.1213 -963.48999
-4.3836598 -32.816502 -964.56299
-2.4232299 -32.489899 -964.40601
2.5078101 -31.705099 -963.38
-4.3516502 -32.294899 -964.52698
-3.3378899 -31.785999 -964.091
-1.64624 -31.795401 -963.992
-0.99389601 -31.7078 -963.89697
1.1048599 -31.438 -963.49799
29.466999 -26.8248 -966.87799
-4.4977999 -31.695 -964.52502
-3.85956 -31.7526 -964.34998
-1.9118299 -31.295099 -963.85498
1.01709 -30.885201 -963.38501
6.1642499 -30.1395 -962.66101
-1.73871 -30.756001 -963.83099
6.1230502 -29.607201 -962.58502
-2.4305999 -30.2852 -963.83002
-1.72681 -30.1989 -963.63501
2.6735699 -29.516899 -962.83899
3.6563699 -29.413401 -962.66602
35.697102 -24.384701 -969.08502
51.786499 -20.5676 -991.11298
-3.2372401 -29.8284 -963.94098
-0.89607501 -29.322001 -963.04102
-0.35998499 -29.4196 -963.16998
5.9291601 -28.5662 -962.05701
-4.79669 -29.4923 -964.33899
-2.45014 -29.261801 -963.23401
-1.96556 -29.241501 -963.07098
-4.82335 -29.122499 -964.03003
-4.10956 -28.8284 -963.95697
-3.24506 -28.724001 -963.64099
-1.9563 -28.565001 -963.34601
0.934021 -28.1327 -962.73901
7.4373999 -27.028 -961.474
-1.9702801 -28.180401 -963.12
-0.86751902 -27.723801 -963.04797
1.72507 -27.8134 -962.21997
-2.7119801 -27.660299 -963.34003
-1.8421 -27.5469 -963.05499
-0.805062 -27.1875 -962.92401
-5.8271599 -27.475 -964.16302
-5.0117798 -27.4806 -964.12598
-2.67926 -27.159599 -963.29797
-1.88254 -27.1278 -963.43402
0.756217 -26.7192 -962.31702
8.5280199 -25.518299 -961.56403
11.3578 -25.101 -961.578
13.8321 -24.7908 -961.92499
-8.49438 -27.396999 -965.51599
-6.8626499 -27.4541 -964.72699
-4.48492 -26.8703 -964.00299
-2.8174 -26.5595 -963.23901
-2.21051 -26.566 -963.276
0.78790301 -26.136101 -962.31
2.63991 -25.7773 -961.76599
13.8872 -24.2652 -961.61102
-5.8323598 -26.428499 -964.09802
-5.3003998 -26.4631 -963.91302
-4.42834 -26.302099 -963.87799
-2.31952 -26.0338 -963.26801
-0.80301702 -26.1196 -962.82397
0.70532203 -25.642 -962.28003
5.9549799 -24.9072 -961.086
8.3771696 -24.508699 -961.11298
13.9233 -23.700001 -961.21399
-6.7866802 -26.096701 -964.59497
-5.8254399 -25.926701 -964.07599
-5.1078501 -25.8606 -963.96503
-3.7749 -25.6891 -963.60101
-0.27794799 -25.126301 -962.38098
2.7225299 -24.8311 -961.85797
3.37274 -24.7194 -961.78601
7.5121498 -23.886999 -961.01599
13.9413 -23.1598 -961.34399
15.1007 -23.2271 -961.47498
-8.6405001 -25.7673 -965.27502
-6.8820801 -25.5632 -964.54199
-5.8220201 -25.4118 -963.89203
-5.1847501 -25.3326 -963.90002
-4.2600698 -25.450399 -963.58899
-3.0801401 -25.0282 -963.276
-1.87567 -25.0404 -962.71301
-0.34515399 -24.658001 -962.64001
2.50525 -24.2792 -962.01599
3.2297399 -24.158001 -961.862
4.3338799 -23.762501 -961.66901
6.05478 -23.8568 -961.461
7.9313998 -23.5124 -961.04602
8.5018301 -23.423599 -961.04999
11.1398 -23.0375 -961.23798
12.3948 -23.084 -961.16498
17.113501 -22.127899 -961.54401
22.4569 -21.5224 -962.43597
-8.6339903 -25.271299 -964.75702
-3.7328999 -24.457001 -963.12299
-1.78027 -24.3284 -962.87903
8.5260401 -22.8836 -961.31201
11.0964 -22.461201 -961.22803
22.462299 -20.9778 -961.93103
24.8251 -20.200701 -961.79102
-8.7013502 -24.607401 -965.07397
-7.8654799 -24.519899 -964.73401
-6.8748002 -24.3291 -964.25702
-6.3421998 -24.322599 -963.78601
8.5027103 -22.338699 -960.93298
9.6399899 -22.410101 -961.08197
22.446501 -20.1387 -961.92499
-10.2485 -24.257299 -965.62201
-8.6433802 -24.260201 -964.91803
-7.7469101 -23.773399 -964.33698
-6.8713198 -23.800699 -964.13397
-6.1416001 -23.752399 -963.93903
-3.2551899 -23.3785 -963.03302
-1.8801301 -23.1845 -962.70001
14.9082 -20.7209 -961.50201
-8.7216797 -23.5679 -964.88397
-7.76367 -23.2299 -964.354
-6.8626399 -23.285101 -964.05402
16.9009 -19.922899 -961.21198
-9.6016798 -23.1777 -965.18201
-8.8687096 -23.0772 -964.883
-7.9906001 -22.970699 -964.50299
-7.09094 -22.870399 -964.13202
-5.4675899 -22.6534 -963.547
-4.7636099 -22.563499 -963.31702
-4.0507798 -22.4578 -963.08698
-0.553711 -21.996099 -962.21997
28.6138 -17.558201 -963.39099
-9.7168598 -22.716 -965.17297
-8.85077 -22.6112 -964.789
-7.9591699 -22.493999 -964.401
-7.3042402 -22.208 -963.81403
-6.27069 -22.2547 -963.73602
-4.7185102 -22.105499 -963.19397
-2.8361299 -21.837601 -962.26202
-1.8801301 -21.8871 -962.32202
-0.487854 -21.530399 -962.073
3.25021 -21.0651 -961.26398
16.8592 -19.125601 -960.93201
-8.1732502 -22.1541 -964.18799
-7.2639799 -21.882601 -964.05701
-6.38239 -21.792299 -963.71002
-4.76056 -21.5781 -963.09399
-1.92136 -21.3274 -962.047
-0.65625 -21.0107 -962.06598
6.0239902 -20.0846 -961.00201
5.8828702 -19.6005 -960.99597
19.639799 -17.5375 -961.091
20.0786 -17.690001 -960.96802
20.759399 -17.395201 -961.14398
5.9955301 -19.1605 -960.67798
24.2694 -16.284201 -961.763
0.94897503 -19.2293 -961.03699
2.8626101 -18.9778 -960.78302
-5.6489902 -19.508801 -962.74799
-3.36462 -19.2234 -961.992
-1.87549 -19.0256 -961.58502
-1.17291 -18.9527 -961.40698
0.88079798 -18.648199 -960.95099
8.5014896 -17.648199 -960.39398
-5.6602201 -18.9182 -962.68298
-3.3015299 -18.7269 -961.66199
-2.0173299 -18.4569 -961.54797
2.6774099 -17.9202 -960.20398
3.1641099 -17.9596 -960.336
4.1420898 -17.6453 -960.32599
-2.83004 -18.1768 -961.45898
-0.74932897 -17.7659 -961.20801
0.81243902 -17.5516 -960.79999
-3.76457 -17.638901 -961.802
-2.23981 -17.452801 -961.54102
-0.84502703 -17.2213 -960.92401
3.2435901 -16.7052 -960.367
5.9402499 -16.489201 -959.74298
-5.8776898 -17.3794 -962.55701
-4.2790298 -17.067499 -962.03101
-0.82555503 -16.695299 -960.79401
3.16065 -16.3661 -960.25098
5.9540401 -15.9411 -959.67902
8.4320698 -15.5665 -959.83002
11.0844 -15.103 -960.15997
-7.3284602 -16.918501 -962.66101
-6.86482 -16.942301 -962.83398
-5.8200898 -16.9792 -962.13702
-4.2737799 -16.5625 -961.88898
-2.84374 -16.614901 -961.28003
-2.24017 -16.476601 -961.33801
0.782884 -16.2335 -960.34601
5.8453999 -15.3938 -959.86798
8.31989 -15.0482 -959.80499
-7.7756801 -16.3978 -962.95898
-6.8591399 -16.4459 -962.86603
-5.2968001 -16.4888 -961.953
-2.3727801 -16.062401 -960.98901
-1.9033 -16.111 -960.93903
0.71350098 -15.574 -960.49701
2.2549901 -15.2334 -960.164
4.28021 -14.8625 -959.75403
5.9347 -14.9216 -959.67999
8.4318895 -14.5429 -959.67798
-9.3176298 -16.275299 -963.62
-7.7485399 -15.8658 -962.961
-6.8440299 -15.8852 -962.65399
-3.12305 -15.5515 -961.46002
-2.39447 -15.4598 -961.26599
-1.88264 -15.5934 -960.93103
0.532776 -15.078 -960.52399
1.23499 -14.9858 -960.383
1.72663 -14.8241 -960.06097
3.1829901 -14.8278 -959.91199
8.3723803 -14.0272 -959.49902
-10.649 -15.7473 -964.07202
-9.3267803 -15.7452 -963.57001
-7.72299 -15.3419 -962.72601
-6.0283198 -15.3152 -962.30902
-4.7482901 -15.1532 -961.922
-2.4137001 -14.9125 -961.17999
0.539612 -14.528 -960.42999
3.2184401 -14.1933 -959.90802
5.6077299 -13.8756 -959.75
8.6502104 -13.4655 -959.604
-9.5541401 -15.1726 -963.677
-6.8851299 -14.8694 -962.578
-6.3289199 -14.8937 -962.31799
-3.2499399 -14.519 -961.01398
-2.5499301 -14.3695 -961.17999
-1.87896 -14.077 -960.72998
0.351318 -13.9919 -960.474
0.82167202 -13.6747 -960.19501
2.3678601 -13.7358 -960.06201
8.1286001 -12.9832 -959.461
8.6908598 -12.8986 -959.448
10.1609 -12.4924 -959.20801
-7.6823502 -14.3112 -962.57397
-7.02771 -14.3084 -962.60101
-6.3159399 -14.3751 -962.15601
-5.5889301 -14.1738 -962.08899
1.01721 -13.3469 -960.26202
4.2844901 -12.7155 -959.47101
4.9279199 -12.8141 -959.57898
7.5127602 -12.4858 -959.396
8.0111704 -12.4142 -959.43597
9.7909498 -12.1892 -959.35199
-10.6909 -14.1754 -964.09198
-7.6976099 -13.8142 -962.84698
-7.2529402 -13.8478 -962.48602
-6.28687 -13.6704 -962.23102
-5.76017 -13.3942 -961.88202
-4.1585698 -13.4079 -961.51001
-1.82978 -13.0094 -960.716
-0.77351397 -13.0653 -960.26898
2.2687399 -12.6882 -959.59601
2.8615699 -12.5293 -959.85602
8.4049702 -11.8042 -959.46503
9.00525 -11.703 -959.40698
9.7449303 -11.5986 -959.27502
-5.7448802 -12.8624 -961.81097
-5.2291298 -12.8726 -961.60901
-0.61810303 -12.4535 -960.52301
2.28123 -12.1628 -959.66998
8.49755 -11.3691 -959.49298
11.3297 -10.9814 -959.021
-11.5793 -13.1864 -964.354
-5.1478901 -12.4896 -961.81201
-4.1745801 -12.3927 -961.63
-3.6589501 -12.4204 -961.00598
-0.76484001 -12.0174 -960.22699
0.84500903 -11.5808 -960.203
2.7365899 -11.6963 -959.77502
6.0492401 -11.2683 -959.078
8.3815298 -10.7579 -959.26801
9.6338301 -10.8878 -958.95599
11.3857 -10.3535 -959.21198
39.452301 -5.54774 -969.92902
-11.6245 -12.6877 -964.39203
-5.2095399 -11.8177 -961.61798
-4.3930702 -11.8766 -961.479
-3.6506801 -11.8883 -960.89301
-1.81399 -11.4678 -960.388
0.80804402 -11.2596 -960.02899
5.9358501 -10.5935 -959.30701
-5.7148399 -11.2723 -961.82599
-4.1638699 -11.3389 -961.164
-0.73788899 -10.9758 -960.15601
-0.213724 -10.9771 -959.93103
4.3910599 -10.1601 -959.13397
5.8087201 -10.1295 -959.31299
7.8596802 -9.8388996 -959.06702
9.4465904 -9.6476698 -959.11902
11.3597 -9.4800196 -959.27301
-7.1890702 -11.2035 -962.18298
-6.22364 -11.2658 -961.71698
-3.82568 -10.8173 -961.17902
-3.11938 -10.7175 -960.96899
-0.80786097 -10.4698 -960.31799
-0.212111 -10.4552 -960.09698
3.2750101 -10.094 -959.60999
8.0540304 -9.3231297 -959.12201
11.2299 -8.8656197 -959.03998
37.601398 -4.1968098 -967.67102
-5.33606 -10.4884 -961.63397
-4.6392298 -10.266 -960.99597
-4.1407099 -10.2647 -961.13098
-3.14572 -10.3411 -960.599
-0.88269001 -9.9197702 -960.28198
3.2797799 -9.6015902 -959.37
7.6159101 -8.8541203 -959.05402
-6.88873 -10.12 -962.15399
-5.4389601 -9.9493999 -961.63
-4.7669101 -9.8632698 -961.41901
-4.138 -9.8092699 -961.25702
-3.59795 -9.79708 -960.72498
-1.75916 -9.3974104 -960.19397
-1.00507 -9.4212303 -960.289
-0.15448 -9.3283796 -960.03699
5.6620498 -8.5875196 -959.15198
7.4422002 -8.3694296 -959.09998
8.0047598 -8.2832098 -959.08698
11.7287 -7.7490001 -958.94397
14.255 -7.3584099 -959.58197
17.063999 -6.9341002 -959.922
-13.0677 -10.1572 -964.883
-7.16536 -9.6487198 -962.047
-6.3480201 -9.4856701 -961.94897
-5.6531301 -9.2121696 -961.48602
-4.1068602 -9.2948999 -960.96802
-1.74968 -8.8718004 -960.39697
-0.41076699 -8.7975302 -960.138
2.9260299 -8.3764 -959.49799
3.53772 -8.2795095 -959.414
14.1806 -6.80231 -959.53699
40.657799 -2.2765701 -970.85498
-12.8617 -9.4134703 -964.65698
-7.9478102 -9.0678301 -962.52197
-7.1402898 -9.1438103 -962.02301
-6.4362798 -8.9333 -961.93402
-5.6355 -8.8315296 -961.625
-4.9000902 -8.7581902 -961.36902
-2.0269201 -8.4386396 -960.54102
-1.72025 -8.3452101 -960.21301
-0.679331 -8.3992004 -960.14502
1.02185 -8.0606604 -959.72699
11.4355 -6.6896701 -958.96503
40.190201 -1.84724 -969.67999
-13.2803 -9.0326796 -964.95697
-8.4390202 -8.5707197 -962.57501
-6.65729 -8.1402998 -961.64502
-5.7280302 -8.2497902 -961.63501
-4.58709 -8.2243605 -960.94
0.96342099 -7.4271002 -959.99902
1.44531 -7.4304199 -959.69702
3.2182 -7.2172699 -959.461
5.5009198 -6.92419 -959.008
7.9263301 -6.60114 -958.87097
14.0338 -5.6823702 -959.453
-14.2132 -8.3263903 -965.29999
-6.1384401 -7.6219702 -961.479
-4.5801902 -7.6907401 -961.00897
-3.5565901 -7.2234702 -960.69299
-2.8350799 -7.3597898 -960.63
1.4462301 -6.87257 -959.59399
5.53756 -6.5180802 -959.00598
6.5482798 -6.2246599 -958.966
9.6670504 -5.7997098 -958.73901
11.7896 -5.4936399 -959.15399
-5.9487901 -7.2260399 -961.64697
-5.08325 -7.1540298 -961.20398
-4.5686202 -7.17241 -960.77399
-2.09991 -6.8043499 -960.35602
-1.70676 -6.7644501 -959.96399
-0.76361102 -6.6186099 -960.06897
-0.106209 -6.3049002 -959.64801
8.1167402 -5.6511102 -959.03998
31.945101 -1.77 -964.88599
-6.7717299 -6.82307 -961.92102
-6.0406499 -6.73207 -961.64697
-5.3229399 -6.6371598 -961.38898
-4.5406499 -6.5432901 -961.09802
-4.04351 -6.6585999 -960.729
-3.0566499 -6.1828098 -960.513
-2.21259 -6.31212 -960.35901
-0.87445098 -6.1522002 -960.06897
5.6138501 -5.5152001 -958.89099
11.6061 -4.7477498 -959.14502
32.202702 -1.31565 -964.54303
-7.61237 -6.3801999 -962.216
-6.9263902 -6.34027 -961.96997
-6.0878 -6.0668502 -961.48401
-4.6970801 -6.0838799 -961.14502
-3.8939199 -6.0049701 -960.87
-2.58022 -5.6854901 -960.117
-1.55444 -5.7351098 -960.14502
2.4751799 -5.38627 -958.98798
6.3608398 -4.7775798 -958.88397
7.7315402 -4.6055002 -958.52399
8.7028503 -4.65415 -958.80902
-5.4321899 -5.6619601 -961.35901
-3.94592 -5.5075402 -960.84802
-1.73193 -5.2761502 -960.22198
-0.056097999 -5.2664599 -959.49597
2.4890699 -4.7423601 -959.24701
8.7793303 -4.1479301 -959.14099
11.4333 -3.55405 -959.15503
-5.63837 -5.1605501 -961.45398
-1.79608 -4.7452302 -960.19897
-0.542252 -4.7326198 -959.73199
1.10294 -4.3171401 -959.83801
3.51423 -3.9307301 -959.04401
11.4515 -3.02648 -959.04901
-4.99369 -4.52672 -960.85602
0.061282501 -3.75949 -959.64398
2.1305301 -3.8543501 -959.00403
3.5011599 -3.5896399 -959.15399
7.0936899 -3.08746 -959.12598
11.8676 -2.4449401 -959.10602
36.118999 1.56007 -967.89398
-5.07935 -3.9999199 -961.18903
-4.23914 -3.8856201 -960.85797
-3.4361401 -4.0910902 -960.336
0.52313203 -3.36936 -959.90302
1.20508 -3.2681401 -959.74298
2.54688 -3.1159201 -959.48999
3.5980699 -2.80424 -959.35303
11.7896 -1.91014 -959.07599
35.991402 2.28982 -966.36499
-4.4210801 -3.35777 -960.927
-2.9514799 -3.1912501 -960.492
-1.56866 -3.16311 -960.38702
-0.140808 -2.8439901 -960.04999
0.42163101 -2.7764399 -959.974
5.8606601 -2.1043999 -959.09998
8.36689 -2.0592899 -959.03101
9.3992701 -1.52797 -959.18799
11.5652 -1.36024 -959.14502
-6.13379 -2.9563601 -961.56702
-5.4491 -2.9716899 -961.16602
-2.4448199 -2.5502601 -960.46198
-1.5488501 -2.6265199 -960.45203
-0.97442597 -2.3596001 -960.26599
8.3927002 -0.96234 -958.89899
11.1588 -1.07208 -958.86902
11.5429 -0.77663398 -959.06702
-6.16644 -2.4216001 -961.58002
-5.4203601 -2.42484 -961.39697
-4.8831801 -2.4653499 -960.96399
-3.8731101 -2.15606 -960.70599
-3.3067601 -2.13147 -960.61499
3.7219501 -1.22905 -959.48999
8.5306396 -0.63011903 -958.95898
10.6114 -0.48952001 -958.91699
11.1909 -0.53559798 -959.12799
11.7704 -0.065750599 -958.81598
-5.38098 -1.81214 -961.22699
-1.84503 -1.41248 -960.41498
2.7230899 -0.70336598 -959.47302
5.3271499 -0.55270398 -959.25201
5.8316302 -0.363482 -959.13501
6.6304302 -0.38906899 -959.08099
8.4406099 -0.155334 -958.94897
9.45189 0.032077 -958.78998
11.8065 0.441609 -959.14398
-1.8796999 -0.89836103 -960.41101
-1.38235 -1.05142 -960.37903
8.9530497 0.578426 -958.92499
11.9014 0.80841798 -959.00299
-4.8845801 -0.79579198 -961.01398
-3.80176 -0.653687 -960.87201
1.24152 -0.070816003 -959.79199
2.5999801 0.094970703 -959.52502
4.2280598 0.29483101 -959.17297
5.8610802 0.677993 -958.91101
8.4403296 0.60501498 -958.66901
8.9857998 1.05731 -958.74103
-5.1251798 -0.28199801 -961.12701
-3.77545 -0.13358299 -960.91101
-2.28333 0.034933601 -960.271
5.78406 1 -959.11603
9.0132999 1.57858 -958.74902
11.8488 2.00947 -958.72803
36.8727 5.9226599 -967.89099
-2.17151 0.61164898 -960.5
-1.50281 0.67373699 -960.34497
-0.139404 0.86093098 -959.995
-4.7822099 1.1507 -960.90802
-3.6687601 1.12143 -961.133
6.1934199 2.07652 -959.07898
10.7229 2.5821099 -958.55499
11.2892 2.5374401 -958.547
-5.8220401 1.24291 -961.28198
-1.2794501 1.52905 -960.06
-0.205633 1.97114 -959.85101
1.39589 1.91186 -959.48798
8.5168505 3.1827199 -958.77899
12.1362 3.4153299 -958.90302
-2.59003 2.2397101 -960.64001
-1.76011 2.0780301 -960.31799
-1.21631 2.3757801 -960.27502
3.3451099 2.89257 -959.005
9.6133404 3.64643 -958.84003
-5.01758 2.58074 -961.37097
-3.36798 2.7195699 -960.83801
-2.6844499 2.79899 -960.65802
-2.1620901 2.6245799 -960.33801
-1.23832 3.10375 -960.271
-0.032043502 3.08269 -960.008
0.350591 3.0183699 -959.77002
5.4415002 3.9233799 -959.284
6.00316 3.86762 -958.82703
8.3842802 4.07725 -958.854
10.1376 4.3297501 -958.89001
12.0735 4.5576601 -958.79102
39.685398 9.2644396 -970.70203
-5.06567 3.1449299 -961.39099
-4.57129 3.2551401 -961.06598
-3.54741 3.21016 -960.88702
-0.199341 3.59776 -960.08301
2.7274799 3.9277201 -959.37701
6.0345101 4.3917398 -959.19
6.8646202 4.4273901 -959.06299
37.9459 9.1788797 -967.995
-10.4976 3.0278399 -963.41803
-8.4740295 3.45504 -962.57098
-7.0266099 3.3789101 -962.17499
-6.3302598 3.5056901 -961.98798
-4.0415101 3.77651 -960.95697
-1.6506799 4.16958 -960.10303
3.78809 4.57096 -959.32001
9.64923 5.26826 -958.67499
10.1094 5.33425 -958.79199
-10.1502 3.6538701 -963.28699
-9.4800501 3.47419 -962.89301
-8.4373598 3.9770701 -962.492
-7.80792 3.8945899 -962.552
-7.1728501 3.94627 -962.34497
-6.1157298 3.87205 -961.99799
-4.6995802 4.1957202 -961.36401
-4.0079002 4.2938099 -960.797
-3.0954001 4.3299699 -960.81702
-2.3368499 4.4277601 -960.58502
-1.62093 4.6988702 -960.052
-1.1554101 4.6761899 -960.19598
3.9359901 4.9661798 -958.89001
5.6306801 5.2700701 -959.07599
6.0784302 5.34863 -959.11798
10.5203 5.8863702 -958.862
-9.9414597 4.04949 -963.19098
-8.3803701 4.48314 -962.76599
-7.3977699 4.4348998 -962.323
-6.5123901 4.50102 -962.10303
-5.5300202 4.8898101 -961.5
-5.01439 4.8683 -961.25403
-3.9918301 4.80404 -961.03699
-2.5025499 4.7350502 -960.38898
0.45952001 5.1334 -959.53198
5.0641599 5.9584098 -958.961
6.3679199 5.8450098 -958.87097
8.5945396 6.1058302 -958.89001
9.2810698 6.1896701 -958.82703
-9.6920795 4.7193799 -963.25598
-8.8243599 5.0148702 -962.99597
-7.39148 4.9235802 -962.47803
-6.0336399 4.9237499 -961.63202
-4.9612999 5.1733098 -961.49298
-4.1733398 5.2231302 -961.216
-3.45895 5.3074002 -960.82202
-1.88306 5.4518399 -960.492
3.0106201 6.02458 -959.19397
4.35675 6.11553 -959.14398
6.1596498 6.47646 -958.77899
7.1663799 6.4568601 -959.01398
8.7153597 6.8206902 -958.49103
9.1911602 6.7125101 -958.823
10.4526 6.8652701 -958.79303
12.1205 7.08604 -958.84497
38.426498 11.4349 -968.44598
-9.9152203 5.2560802 -963.51599
-3.60693 5.8064299 -961.06403
1.4043 6.3088398 -959.71899
2.5725901 6.5627198 -959.37598
3.9730899 6.4804101 -959.21802
6.1397099 6.89851 -958.81702
9.2711496 7.3354001 -958.55701
12.0892 7.57514 -958.79498
-4.55481 6.2663798 -961.42603
-3.9207201 6.3313098 -961.12097
-2.8940799 6.30862 -960.58698
-2.43523 6.2836599 -960.46301
-1.05314 6.71837 -960.06299
1.61886 7.0816202 -959.56702
2.62135 7.0563402 -959.42603
3.3629799 7.0576601 -959.36902
4.0015402 7.00527 -959.23798
5.8855 7.3678298 -959.03302
7.1173701 7.5013199 -958.95398
9.5167799 7.7957702 -958.909
11.8927 8.0651197 -958.88898
14.825 8.4735003 -959.07001
-10.8608 6.3622899 -964.005
-4.6206698 6.83078 -961.435
-3.8859501 6.8551998 -961.104
-2.3168299 7.02525 -960.68201
-1.03063 7.2319999 -959.96997
-0.28015101 7.2473898 -960.146
1.79382 7.4499002 -959.69897
4.0475502 7.5380402 -959
6.80827 7.9516001 -959.02899
9.4553804 8.3357096 -958.896
12.1501 8.7999296 -959.09698
-4.8885398 7.41361 -961.36603
-3.1150501 7.5355 -960.91498
-1.83307 7.6648598 -960.59601
-1.1195101 7.7329302 -960.38
1.63843 8.0458498 -959.75
4.9819899 8.4022598 -959.20599
10.6146 9.0625801 -958.82898
-4.0844102 8.0450296 -961.27899
-2.4812 8.16642 -960.72198
-1.3015701 8.3211699 -960.453
3.1424501 8.6251898 -958.99902
5.7136998 9.0550098 -958.94598
9.3127203 9.4481497 -958.54602
-4.2650099 8.5720396 -961.39001
-3.2769699 8.92698 -961.00403
-2.7556801 8.7174501 -960.88397
2.3270299 9.2330704 -959.54102
4.1739502 9.3948898 -959.328
-3.5709801 9.1483202 -961.15002
-2.2739401 9.3948202 -960.40503
1.76559 9.7413597 -959.58099
3.1854701 9.6812201 -959.16699
13.2778 10.9906 -958.67401
-3.7469201 9.4738598 -960.97998
-2.96277 9.6807404 -960.97803
-2.2507 9.9002705 -960.48401
-1.64917 9.8223305 -960.62402
10.4679 11.1338 -958.48102
-4.7417202 10.0384 -961.46899
-3.2196801 9.9705896 -961.07397
-0.88080502 10.3959 -960.34399
4.7294898 10.9564 -958.96698
6.6437998 11.1547 -958.66602
-4.0699501 10.6331 -961.41302
-3.2090099 10.9937 -961.01501
2.74878 11.2474 -959.211
2.2804599 11.7777 -958.896
2.7206099 11.7866 -959.23798
3.8391099 11.9213 -959.034
12.1179 12.781 -957.966
39.177601 17.1649 -967.46503
-1.82538 11.8632 -960.33698
0.58196998 12.082 -959.59497
9.2032299 13.0073 -957.53601
9.7469501 13.4893 -957.94
14.5524 14.1791 -957.69501
2.65924 13.9372 -958.51001
4.5200601 14.2507 -957.85797
12.0247 14.9949 -957.53998
3.2533 14.5486 -958.26501
12.1479 15.511 -957.42297
-0.41959301 14.4567 -958.84698
1.6978 14.9175 -958.18799
2.6698799 14.8457 -958.03302
8.8038998 15.6809 -957.71198
12.1463 16.0299 -957.45898
-2.03174 15.0102 -959.64502
-1.20441 15.0595 -959.34003
1.72184 15.4242 -958.39801
5.0369301 15.6928 -957.93103
5.7035599 15.8233 -957.755
8.6947603 16.096001 -957.68103
11.0445 16.578501 -957.36401
12.1796 16.528299 -957.43799
-6.6480098 15.199 -961.41602
-6.0166602 15.2381 -961.18298
-5.1712599 15.2719 -960.80902
-3.60712 15.3874 -960.159
-2.73349 15.6486 -959.91302
-2.0626199 15.4999 -959.60199
-1.37967 15.5685 -959.19
-0.65283197 15.6127 -959.19501
1.74315 15.9362 -958.66803
4.2760601 16.096701 -958.08002
12.202 17.049101 -957.53302
-6.5518198 15.6871 -961.23401
-5.7583399 15.7878 -960.81
-5.1643701 15.7691 -960.71899
-3.71609 15.6945 -959.94598
-2.20856 15.9952 -959.66901
-1.36475 16.0755 -959.362
-0.61407501 16.1504 -959.133
-3.7997999 16.410601 -960.23602
-3.1446099 16.677601 -959.81201
-2.30865 16.541201 -959.71698
-1.57318 16.610901 -959.48102
-0.84375203 16.5686 -959.06097
8.5597496 17.591801 -957.63501
9.4287395 17.7029 -957.78601
36.02 21.8634 -965.255
-4.1708798 16.742399 -960.27002
-3.1382999 17.2027 -959.95599
-2.3870201 17.077299 -959.74701
-1.75061 17.1276 -959.57703
0.47070301 17.328199 -958.92902
4.0542002 17.6602 -958.09802
6.3654499 17.812201 -957.69598
8.9486799 18.230301 -957.67999
12.0544 18.548901 -957.56097
-4.1141601 17.747499 -960.32202
-3.3568699 17.556101 -960.14697
0.277697 18.093399 -958.737
0.79907 18.0462 -958.59302
1.85614 18.0186 -958.60101
3.7983401 18.223301 -958.22803
6.3803601 18.354099 -957.48401
10.1432 18.873199 -957.60797
12.3197 19.1388 -957.73401
37.661201 23.4807 -966.20697
-3.06198 18.241199 -959.74902
-1.86432 18.2689 -959.59497
-1.24098 18.129601 -959.13397
-0.72910798 18.624599 -959.026
0.234192 18.438299 -959.01801
0.82473302 18.5485 -958.53198
1.8943599 18.5105 -958.50598
3.76318 18.7675 -958.20001
12.2205 19.712099 -957.73901
-3.55091 18.781 -960.112
-3.01543 18.749599 -959.65302
-2.0655701 18.706699 -959.34198
-0.69439697 18.9158 -959.32202
1.62939 19.134399 -958.67798
4.3274899 19.478399 -957.966
11.0569 20.125299 -957.64801
12.3562 20.216101 -957.71503
-2.9790599 19.303499 -960.07599
-2.3297701 19.344999 -959.87598
-1.60574 19.223801 -959.29498
-0.79058802 19.4641 -959.36499
0.345862 19.6467 -959.07898
1.9499 19.5606 -958.40601
4.3442302 19.9944 -958.05701
-3.4848499 19.8451 -959.98999
-2.4939599 19.855499 -959.95398
1.99036 20.2222 -958.67902
12.4292 21.223 -957.81403
-2.45047 20.293301 -959.69897
-1.85797 20.393801 -959.76801
0.55114698 20.6134 -958.987
1.8724999 20.7281 -958.71802
3.8085301 20.9028 -958.35199
4.3947101 21.0214 -958.13397
12.4381 21.7486 -957.841
-2.91921 20.865801 -959.974
-1.80676 20.885 -959.71301
-0.62783402 20.7551 -959.29602
4.4365101 21.5292 -958.20502
-2.88815 21.357901 -959.96802
-1.51658 21.2941 -959.35498
-0.56985497 21.7472 -959.14697
0.30639601 21.601101 -959.09601
2.0440099 21.635 -958.763
3.49104 22.076599 -958.14301
4.4558201 22.027 -958.03699
5.6538701 22.111 -958.02301
12.5027 22.7715 -957.83002
-2.9971299 21.879299 -960.22498
-0.59710699 22.0424 -959.38501
0.50083399 22.2115 -958.95203
3.9907501 22.594 -958.07599
7.63129 22.8223 -957.77698
12.8103 23.403299 -957.80798
-2.25824 22.484301 -959.95599
-1.5201401 22.5723 -959.70203
-0.80401599 22.6036 -959.495
0.54256803 22.714899 -958.73499
2.1461799 22.843 -958.70502
4.4947701 23.105801 -958.40802
9.1167603 23.507601 -957.84003
4.0387602 23.611099 -958.23199
4.56183 23.592501 -958.28998
12.5968 24.360399 -957.52197
-2.7718899 23.4564 -960.06702
-1.85107 23.6525 -959.89899
-1.05615 23.701799 -959.63702
-0.37713599 23.7437 -959.466
0.59020603 23.7735 -958.93298
1.64627 23.722799 -958.685
4.39221 24.146099 -958.367
5.0718398 24.2117 -958.24701
5.6644301 24.290501 -958.20599
7.9207802 24.5137 -957.797
8.8350201 24.6378 -957.78699
9.2989798 24.538401 -957.85498
12.6196 24.877399 -957.81097
-1.27338 24.2593 -959.758
2.21855 24.774 -958.61401
4.7712998 24.768499 -958.41101
6.9844398 25.003599 -958.00201
10.0906 25.3228 -957.742
-1.29015 24.943501 -959.41901
-0.54449499 24.8729 -959.513
3.6638501 25.2176 -958.08301
5.5520601 25.3986 -958.19
6.1746202 25.441 -958.14001
12.8521 26.196199 -957.89502
35.366402 29.9914 -964.40997
37.579102 30.2861 -967.92798
-2.1580801 25.501801 -959.87299
-1.4436001 25.331699 -959.82599
-0.84698802 25.429701 -959.49298
-0.37641799 25.396799 -959.263
0.74951202 25.498199 -959.18402
1.50677 25.5252 -958.96698
4.1250701 25.7125 -958.17902
8.0750103 26.1383 -957.90698
9.3788795 26.066401 -957.63702
12.7955 26.6856 -957.87299
32.456699 29.840799 -965.18701
36.667999 30.6754 -967.85602
38.8922 31.271601 -971.21698
42.856098 32.535999 -977.46198
43.376598 32.6423 -977.992
44.413799 33.323101 -980.97302
-1.65648 26.002399 -959.65601
-0.81296903 25.9653 -959.33197
-0.133118 25.945499 -959.46503
2.2893 26.3307 -958.56403
4.0582299 26.2775 -958.422
5.2894301 26.3764 -958.27899
5.7417002 26.1964 -958.03101
7.2225299 26.5676 -958.07599
31.963699 30.070299 -964.34698
45.155701 33.883099 -982.34497
-1.0567 26.3347 -959.78699
-0.22088601 26.3885 -959.50403
0.61859101 26.474199 -959.21698
4.6927299 26.7075 -958.23499
12.7507 27.4531 -957.89099
24.7537 29.3311 -960.367
25.195101 29.4149 -960.54303
46.893902 35.338501 -988.474
-1.20096 27.0189 -959.73401
0.73873001 26.9021 -959.03699
9.5707397 27.8097 -957.83099
25.7607 30.1516 -961.26599
-2.05109 27.3069 -960.14899
-1.17546 27.5056 -959.82397
-0.25872999 27.4603 -959.43799
0.25654301 27.4529 -959.10199
0.76536 27.4165 -958.92401
1.81269 27.3501 -958.66699
2.37115 27.642401 -958.823
7.6340899 28.128799 -958.00299
46.306198 37.8242 -998.28601
47.0023 37.861 -999.13599
-1.36566 27.911699 -959.92499
-1.5501699 28.461901 -960.02899
-0.747437 28.537701 -959.74402
-0.198201 28.5119 -959.20001
0.83314699 28.4708 -959.047
11.7374 29.7651 -957.86499
-1.69568 29.0359 -960.10303
-0.65806901 29.0767 -959.60901
-0.181501 29.036301 -959.24902
2.9750299 29.453899 -958.48401
9.0431499 30.035101 -958.133
23.4076 33.624001 -976.78101
-1.09154 29.7092 -959.66199
2.5782001 30.0569 -958.599
4.02425 30.0352 -958.71997
4.5172701 30.077 -958.78802
0.465332 30.386999 -959.39398
1.39276 30.434601 -959.08301
8.9930201 32.483601 -968.79199
26.643101 37.381901 -991.83099
6.83815 32.6614 -966.63
32.879101 40.3326 -1006.46
12.959 35.365101 -981.151
15.0623 36.0564 -984.66199
-7.0689602 32.348701 -964.03302
-5.4106598 32.7728 -966.63898
-0.70990002 33.5336 -969.43201
-0.0102539 34.100601 -973.77002
13.6958 37.643799 -990.22601
27.920799 41.946602 -1011.29
-9.2885799 32.384499 -964.39697
-8.7980499 33.008099 -966.87701
-9.4500399 32.987099 -967.90601
4.29493 35.973099 -978.54102
-11.3041 33.0718 -966.242
-10.3355 33.0214 -967.17499
-9.6611996 33.683998 -968.87299
18.391199 41.077499 -1004.42
26.009501 43.575199 -1016.19
-9.4657898 34.418098 -971.62201
-9.5220499 34.984501 -975.54797
4.4753399 36.895802 -978.30103
4.7368798 37.4687 -977.74597
-15.1751 35.835701 -977.46301
-19.122999 36.133701 -977.04999
-19.1679 37.4855 -981.78003
-7.3551302 40.203098 -994.01501
-21.399 37.571899 -983.33197
-19.6544 38.213799 -983.97302
-6.1931801 43.321499 -1009
-5.79741 44.884499 -1013.68
-5.0008101 45.679199 -1016.73
1.78253 45.812099 -966.90198
2.5292399 47.721298 -966.68799
4.5510998 49.0411 -969.966
5.7761998 49.6078 -970.27197
4.8136601 49.8671 -969.73999
5.6132798 50.125702 -970.86298
7.5921602 52.206799 -969.44
8.24858 53.2155 -970.17499
2.2869699 53.100101 -971.49902
8.3183498 53.928299 -970.60999
8.3195801 54.3153 -971.53699
7.0556102 54.581699 -971.64899
8.2593699 55.627102 -971.67798
7.90695 55.690201 -972.453
8.4910898 56.1782 -972.16199
10.1163 58.3978 -976.81897
10.5052 58.7384 -976.659
10.8872 59.798801 -977.06
10.1633 60.4846 -979.276
11.1287 62.051601 -981.17798
