# .PCD v0.7 - Point Cloud Data file format
VERSION 0.7
FIELDS x y z
SIZE 4 4 4
TYPE F F F
COUNT 1 1 1
WIDTH 1609
HEIGHT 1
VIEWPOINT 0 0 0 1 0 0 0
POINTS 1609
DATA ascii
30.269199 -27.2766 -966.47198
-24.4758 -24.2076 -976.50702
-21.808901 -24.2924 -973.836
-16.4048 -24.492399 -969.30902
-15.9251 -24.5042 -969.05402
-13.9482 -24.582001 -967.91602
-13.0143 -24.583599 -967.32001
-12.577 -24.608 -966.92401
-12.1507 -24.601 -966.60602
-11.7044 -24.651699 -966.40198
-10.6821 -24.697599 -965.87097
-7.3284202 -24.8011 -964.31201
-4.2473502 -24.9396 -963.26398
-3.2607601 -24.992701 -963.03699
-2.8228099 -25.008301 -962.90198
-2.3624001 -25.014 -962.65601
-1.87567 -25.0404 -962.71301
-1.33634 -25.064899 -962.34198
-0.80272299 -25.091101 -962.41699
-0.27794799 -25.126301 -962.38098
0.27586201 -25.1357 -962.04797
2.24962 -25.256701 -961.573
3.6965599 -25.300501 -961.23401
7.4437099 -25.485701 -960.96399
7.9021502 -25.5037 -960.729
8.9929304 -25.5249 -960.63202
10.13 -25.616899 -960.836
10.7003 -25.632601 -960.72998
11.2896 -25.6362 -960.95801
12.3463 -25.6945 -960.93103
12.8355 -25.754499 -961.05402
14.4344 -25.822701 -960.97699
15.0459 -25.8664 -960.94397
15.641 -25.875999 -961.19897
16.8344 -25.945499 -961.29602
17.448999 -25.996201 -961.45801
17.9743 -25.9914 -961.60199
18.505301 -26.0137 -961.60303
20.1644 -26.1229 -962.117
21.4314 -26.193399 -962.60199
22.036501 -26.2153 -962.63397
38.533798 -27.2222 -971.70502
-21.811001 -23.8041 -973.67102
-16.4046 -23.9636 -969.18597
-15.419 -24.0096 -968.63501
-12.5647 -24.123301 -966.737
-12.1465 -24.1157 -966.60797
-11.6907 -24.1488 -966.31097
-7.7495098 -24.289 -964.33502
-6.3421998 -24.322599 -963.78601
-3.2632599 -24.480301 -962.84802
-2.81112 -24.4935 -962.776
-1.88379 -24.5478 -962.56702
-0.809488 -24.5975 -962.30701
2.2788999 -24.7232 -961.64502
3.2848599 -24.767799 -961.76001
4.8748899 -24.8503 -961.25299
7.92418 -24.991699 -960.737
9.5380497 -25.060699 -960.547
10.1061 -25.108101 -960.73102
10.6955 -25.136801 -960.72803
12.3494 -25.1975 -960.63202
15.0446 -25.3377 -960.841
15.6392 -25.3927 -961.18701
16.246099 -25.3951 -960.992
17.447001 -25.476601 -961.41101
17.970301 -25.4897 -961.59497
18.4727 -25.51 -961.44
20.1563 -25.6292 -962.05902
23.2052 -25.7612 -962.43597
23.747999 -25.782101 -962.61298
26.718399 -25.9554 -963.60498
28.0898 -26.072399 -964.505
28.7976 -26.0937 -964.711
29.505301 -26.104601 -965.18799
36.4062 -26.6021 -969.85101
-24.927999 -23.1674 -976.987
-20.950899 -23.305401 -972.64001
-16.389099 -23.4403 -969.10901
-12.1361 -23.6036 -966.38898
-11.6819 -23.618401 -966.22101
-11.1885 -23.636 -965.89301
-10.1811 -23.682699 -965.52899
-9.6629 -23.709101 -965.27899
-7.7469101 -23.773399 -964.33698
-3.7302001 -23.939699 -962.92999
-2.8031199 -23.9662 -962.64697
-1.8837301 -24.0317 -962.47699
-0.80683202 -24.065701 -962.19897
0.82177001 -24.134899 -962.008
1.83245 -24.1633 -961.59998
4.3368301 -24.305201 -961.61798
4.89396 -24.3449 -961.104
5.41046 -24.322001 -961.35303
7.9187498 -24.5 -960.74402
9.5384302 -24.552999 -960.505
10.102 -24.5811 -960.58801
10.6839 -24.595699 -960.69397
11.2785 -24.6113 -960.66803
11.8313 -24.6483 -960.716
12.3438 -24.6696 -960.52502
12.8212 -24.7195 -960.66803
15.6379 -24.830999 -961.03802
16.226801 -24.917801 -961.17798
16.816601 -24.9079 -961.21997
17.441401 -24.937099 -961.27802
17.9863 -24.9564 -961.29498
18.4809 -24.980301 -961.36102
18.9863 -25.0093 -961.58801
20.147499 -25.105301 -961.78699
20.7808 -25.123301 -961.91498
23.1528 -25.2446 -962.37799
29.4051 -25.6217 -964.97498
35.615799 -26.034 -968.823
-29.978399 -22.511801 -983.927
-29.1369 -22.4998 -982.59003
-25.366301 -22.6224 -977.26501
-24.914801 -22.633699 -976.87
-22.2013 -22.714001 -973.95697
-20.9634 -22.7365 -972.72601
-15.9004 -22.913401 -968.65802
-15.4149 -22.9368 -968.52197
-12.5562 -23.0404 -966.50702
-12.1357 -23.0548 -966.34302
-11.6764 -23.0804 -966.11102
-10.6698 -23.1042 -965.55298
-7.76367 -23.2299 -964.354
-7.32336 -23.242599 -964.12701
-6.8626399 -23.285101 -964.05402
-6.3183699 -23.278799 -963.43201
-5.8080301 -23.304199 -963.492
-2.37591 -23.4615 -962.49103
-1.88661 -23.473801 -962.46503
-0.269656 -23.5432 -962.01898
0.81300199 -23.6059 -962.02899
1.33823 -23.6257 -961.742
2.2990899 -23.6457 -961.38397
2.7648201 -23.680799 -961.23798
5.42203 -23.802401 -961.078
7.5121498 -23.886999 -961.01599
10.1221 -24.0361 -960.34497
12.3482 -24.143 -960.58899
12.8238 -24.169201 -960.72803
15.0682 -24.297199 -961.08002
16.8379 -24.344801 -960.99298
17.9512 -24.4235 -961.30701
18.983601 -24.481001 -961.526
20.7782 -24.5965 -962.12402
21.3769 -24.6066 -962.14398
23.6695 -24.722401 -962.44202
29.342699 -25.055201 -964.685
-30.320299 -21.9755 -984.61499
-29.565599 -21.9937 -983.23499
-26.5467 -22.0776 -978.85901
-25.7528 -22.073299 -977.63202
-25.346201 -22.105101 -977.073
-24.904499 -22.0902 -976.65698
-20.938299 -22.215799 -972.495
-20.4594 -22.231001 -972.09198
-19.996901 -22.2446 -971.85901
-17.6929 -22.3197 -969.85901
-15.882 -22.386999 -968.35199
-14.9086 -22.4361 -968.01099
-12.9822 -22.485201 -966.84003
-12.555 -22.507999 -966.45099
-12.1191 -22.522699 -966.25299
-11.6627 -22.539 -965.96698
-11.1693 -22.563101 -965.78802
-10.6716 -22.5912 -965.61603
-7.7554302 -22.714199 -964.284
-7.3208199 -22.7132 -963.99701
-6.3261399 -22.775 -963.51001
-5.8143802 -22.772699 -963.552
-5.2884002 -22.808701 -963.104
-3.24018 -22.898001 -962.61298
-2.35831 -22.935101 -962.38599
-1.87703 -22.9436 -962.11603
-1.33878 -22.9837 -962.034
-0.80407298 -22.987101 -961.99597
2.28988 -23.149401 -961.271
5.44168 -23.2806 -961.17798
6.0089698 -23.310101 -961.21698
7.04919 -23.348499 -960.81799
8.0277796 -23.4044 -960.867
11.2619 -23.5653 -960.52301
12.3781 -23.627899 -960.53497
13.3789 -23.686701 -960.77301
16.2251 -23.8039 -960.94202
17.4296 -23.872 -961.05701
22.495199 -24.1378 -961.85901
23.632299 -24.163601 -962.17102
-32.6814 -21.4396 -989.51501
-29.936701 -21.4338 -983.74402
-29.5422 -21.4512 -983.08398
-29.1322 -21.4526 -982.521
-26.136999 -21.5266 -978.07202
-24.881201 -21.562401 -976.54602
-22.5998 -21.6413 -974.21399
-21.768801 -21.6583 -973.17603
-21.3487 -21.654499 -972.737
-20.478901 -21.695101 -972.15601
-17.2435 -21.813299 -969.42401
-16.348801 -21.834299 -968.617
-15.8804 -21.8512 -968.50702
-14.8996 -21.881701 -967.85303
-14.4029 -21.9032 -967.67499
-11.6691 -22.004601 -965.88098
-11.17 -22.0296 -965.67603
-10.6693 -22.0555 -965.50299
-10.1683 -22.0751 -965.20203
-7.7564402 -22.160999 -964.14899
-7.3042402 -22.208 -963.81403
-6.3235698 -22.2094 -963.513
-2.7960899 -22.3734 -962.31201
-2.3510301 -22.396601 -962.20801
-1.87191 -22.400999 -962.07703
-1.34042 -22.4389 -961.86298
0.27605101 -22.518499 -961.64502
0.82732803 -22.5236 -961.63397
2.2941599 -22.581699 -961.23297
2.7602799 -22.631599 -961.15601
3.2455201 -22.6429 -961.20599
4.9038301 -22.718201 -961.00598
6.5668602 -22.790501 -960.88599
7.5240898 -22.8216 -960.70599
12.9036 -23.102501 -960.70599
13.4039 -23.1313 -960.82001
15.6731 -23.2257 -960.98901
17.411501 -23.3538 -961.21997
-33.032902 -20.869301 -990.20801
-29.942801 -20.928101 -983.79303
-29.535 -20.9312 -983.01398
-25.7502 -21.0065 -977.55402
-25.3297 -20.9958 -977.065
-24.8923 -21.001499 -976.67401
-21.764601 -21.1292 -973.28302
-21.369101 -21.125 -972.86102
-20.927999 -21.1488 -972.49902
-20.4576 -21.163601 -972.02301
-17.2348 -21.2663 -969.33099
-16.353201 -21.3085 -968.71198
-15.3721 -21.333401 -968.047
-12.526 -21.442699 -966.20099
-11.6549 -21.4666 -965.77698
-11.1607 -21.5147 -965.578
-10.6636 -21.5291 -965.49799
-8.1744699 -21.6154 -964.24701
-7.7488198 -21.622601 -964.10699
-7.3117199 -21.6593 -963.91602
-6.8488202 -21.671101 -963.54401
-2.8361299 -21.837601 -962.26202
-2.3621199 -21.866301 -962.013
-0.79410398 -21.936399 -961.909
2.3092699 -22.061001 -961.14502
6.0208902 -22.2453 -960.94098
7.9920502 -22.319799 -960.65997
12.9167 -22.572599 -960.61603
-34.409801 -20.3433 -994.46198
-29.917 -20.361099 -983.59302
-29.108101 -20.382 -982.34698
-25.7349 -20.4725 -977.48297
-24.8785 -20.489201 -976.52502
-24.411301 -20.496799 -975.97998
-21.7558 -20.6 -973.172
-21.3503 -20.5837 -972.70502
-20.928699 -20.6131 -972.44299
-19.4771 -20.668501 -971.19501
-17.235001 -20.738001 -969.07703
-16.8064 -20.7339 -968.92603
-14.8775 -20.848499 -967.70599
-12.53 -20.9139 -966.24902
-11.1485 -20.9762 -965.508
-10.6463 -20.9823 -965.23102
-7.7389498 -21.110201 -963.81799
-7.3042498 -21.1378 -963.64301
-6.8435102 -21.132401 -963.54401
-5.8144102 -21.168501 -963.07098
-4.8169799 -21.190001 -962.64301
-4.3089299 -21.252899 -962.474
-2.4028499 -21.305401 -961.72998
-0.26497999 -21.428801 -961.63702
0.82509899 -21.494301 -961.65198
2.29796 -21.533899 -961.03003
2.7552199 -21.5742 -960.98401
4.3803802 -21.625601 -960.80603
-33.395802 -19.7927 -991.16302
-29.5114 -19.8235 -982.89502
-25.717899 -19.9177 -977.40802
-25.322901 -19.9524 -977.02502
-24.8563 -19.951599 -976.38202
-24.4021 -19.958 -975.875
-21.740999 -20.0697 -973.08502
-21.342199 -20.074301 -972.77197
-20.4237 -20.0979 -971.88098
-17.258101 -20.182899 -969.047
-16.7875 -20.2145 -968.87903
-16.3361 -20.2229 -968.50897
-15.3667 -20.276501 -968.02399
-12.5165 -20.3859 -966.07703
-12.0999 -20.3932 -965.92297
-11.6529 -20.405199 -965.66498
-11.1573 -20.4077 -965.46301
-10.6359 -20.450199 -965.06598
-6.8467798 -20.5944 -963.52197
-5.35747 -20.687799 -962.61298
-4.3179402 -20.739901 -962.27899
0.83491802 -20.9417 -961.289
1.80594 -20.975401 -961.14203
2.2664499 -20.996599 -960.95801
2.7452099 -21.0303 -960.92999
8.5206099 -21.3113 -960.49103
12.4456 -21.4935 -960.48199
14.5201 -21.586599 -960.67102
15.1129 -21.6206 -960.74402
20.6001 -21.901899 -960.96997
28.4758 -22.2974 -963.12299
-29.8825 -19.297701 -983.547
-26.0937 -19.411301 -977.86499
-21.313101 -19.5916 -972.56
-20.8895 -19.577 -972.09601
-20.41 -19.567499 -971.64801
-19.958401 -19.6019 -971.328
-17.249701 -19.6875 -968.91803
-16.345301 -19.724001 -968.60699
-14.8673 -19.801399 -967.69299
-12.5235 -19.8908 -966.13599
-12.108 -19.9021 -966.026
-11.66 -19.914801 -965.87201
-11.1347 -19.932301 -965.37097
-10.6311 -19.961201 -965.13
-7.7342 -20.090799 -963.82599
-7.29425 -20.094299 -963.51599
-5.36027 -20.1777 -962.44702
-2.87429 -20.264799 -961.58002
-1.39539 -20.3326 -961.27802
1.29694 -20.436501 -960.86401
2.2302201 -20.488001 -960.67401
5.4718399 -20.635799 -960.55298
7.5191102 -20.760099 -960.28003
10.2175 -20.870701 -960.29199
11.375 -20.9291 -960.33801
11.9335 -20.9634 -960.32599
12.4467 -20.9718 -960.36298
12.9313 -20.9942 -960.36603
15.1145 -21.1045 -960.55499
15.7031 -21.1476 -960.87701
16.289499 -21.153299 -960.76599
16.9224 -21.2194 -961.02399
21.830299 -21.434401 -961.29102
24.1029 -21.5443 -961.35199
27.861401 -21.790199 -962.91199
28.509199 -21.8144 -963.36902
-21.7099 -19.0348 -972.94397
-20.8783 -19.0541 -972.073
-20.423401 -19.059401 -971.77899
-16.799999 -19.2006 -968.62903
-15.3578 -19.254101 -967.83398
-11.6389 -19.3857 -965.50598
-11.1368 -19.4044 -965.18701
-10.6257 -19.442499 -964.97198
-7.7290301 -19.545099 -963.54999
-6.9088802 -19.6017 -963.15399
-6.4015799 -19.613701 -962.60101
-4.2763901 -19.6817 -962.42999
-2.87414 -19.752899 -961.46899
-0.32196 -19.858 -961.05902
0.72490901 -19.920601 -960.72601
1.73557 -19.9702 -960.57098
2.18314 -20.0093 -960.58398
3.7365 -20.055599 -960.16302
4.8986301 -20.110201 -960.34601
7.5365 -20.250401 -960.41498
9.0665998 -20.290701 -960.216
10.7858 -20.3969 -960.23199
11.9276 -20.4496 -960.35199
12.923 -20.476999 -960.34802
13.4266 -20.5123 -960.28802
14.5065 -20.563801 -960.552
15.7009 -20.621599 -960.64398
16.2833 -20.668501 -960.65302
16.9046 -20.7026 -961.08899
19.997601 -20.8598 -960.71198
20.610701 -20.8808 -960.72101
21.2411 -20.894699 -960.88501
23.588499 -21.0191 -961.32001
28.557301 -21.275999 -963.47302
29.817499 -21.361601 -963.91998
-21.7108 -18.516899 -972.96399
-17.255699 -18.650801 -968.86298
-16.8137 -18.6768 -968.62903
-11.6191 -18.886499 -965.42902
-8.1671305 -19.0128 -963.70099
-7.3625102 -19.090401 -963.20898
-6.91154 -19.092501 -963.00098
-2.8487799 -19.2644 -961.35699
-1.95155 -19.2999 -961.55499
-0.88597101 -19.350401 -961.19702
-0.337051 -19.382 -960.86902
2.1918399 -19.480101 -960.18201
4.2705698 -19.575899 -960.28699
5.4245801 -19.646 -960.02698
7.0391898 -19.7206 -960.46503
7.5437899 -19.747101 -960.17603
8.5106897 -19.7591 -960.13501
9.0610304 -19.805 -960.20502
10.2172 -19.869301 -960.328
10.7976 -19.865299 -960.06702
11.9317 -19.9237 -960.26501
12.4304 -19.961901 -960.32397
13.4122 -20.0093 -960.32098
15.099 -20.0725 -960.58899
15.699 -20.119101 -960.64697
16.2705 -20.151501 -960.56201
21.233 -20.380199 -960.84198
21.8724 -20.409201 -961.034
25.9648 -20.621599 -962.46002
26.624399 -20.669201 -962.64099
27.2854 -20.714001 -963.07703
28.580099 -20.753401 -963.38702
29.2131 -20.806601 -963.87799
29.800699 -20.844601 -963.82001
33.077099 -21.0133 -965.883
-20.857 -17.989 -971.948
-12.4829 -18.3337 -965.86603
-12.0852 -18.339701 -965.823
-11.6205 -18.3673 -965.34802
-8.25179 -18.517099 -963.47803
-2.86973 -18.731899 -961.48999
-0.32857701 -18.838301 -960.74902
0.74561203 -18.8979 -960.85303
2.1975801 -18.966801 -960.04602
2.6591899 -18.986799 -960.26001
4.26371 -19.0602 -959.966
4.8201499 -19.071501 -959.802
6.5388799 -19.174101 -960.01703
7.0533199 -19.188499 -960.33197
7.51682 -19.228201 -960.34802
8.5001602 -19.248699 -960.177
9.06106 -19.290501 -960.05298
9.6532898 -19.2938 -959.87097
10.2154 -19.3381 -960.08002
11.367 -19.372499 -960.07703
11.9345 -19.394899 -960.12598
12.4281 -19.4594 -960.31403
12.9209 -19.5016 -960.16998
18.8269 -19.7421 -960.20203
21.252399 -19.862499 -960.87
21.8811 -19.900801 -961.08899
22.520599 -19.910999 -961.37402
23.119699 -19.9674 -961.33099
27.2887 -20.1786 -962.94299
28.586901 -20.2383 -963.24799
29.8276 -20.3314 -963.83301
-25.667601 -17.281799 -977.20898
-25.2561 -17.2878 -976.69202
-24.8095 -17.3099 -976.12903
-21.289499 -17.4589 -972.47699
-20.849501 -17.442801 -971.89697
-17.621799 -17.5952 -969.18903
-16.803699 -17.605801 -968.19598
-15.8209 -17.641701 -967.76703
-15.3369 -17.686199 -967.75702
-12.9102 -17.768499 -966.172
-11.6133 -17.826799 -965.255
-11.1232 -17.8503 -965.08301
-10.603 -17.863899 -964.83398
-8.2620497 -17.912201 -963.23798
-2.83004 -18.1768 -961.45898
-0.32607299 -18.298201 -960.71997
0.73931903 -18.356701 -960.88397
1.76028 -18.399799 -960.23901
2.1980901 -18.4027 -960.15302
8.5157003 -18.7097 -959.99298
10.2254 -18.805099 -959.87701
11.3616 -18.8344 -959.995
11.9297 -18.858601 -960.06201
12.4408 -18.9032 -960.05701
12.9274 -18.923201 -960.09802
13.932 -18.9716 -960.24298
14.515 -19.005699 -960.35602
15.1081 -19.021999 -960.23499
15.6963 -19.0466 -960.367
21.2507 -19.317801 -960.75299
23.125 -19.418501 -961.52899
26.6373 -19.604401 -962.56799
28.5865 -19.669701 -963.35101
29.850901 -19.773701 -963.89099
-29.0054 -16.641701 -982.013
-26.040501 -16.750299 -977.62701
-25.245899 -16.7796 -976.68903
-24.337 -16.798901 -975.62598
-20.847 -16.938299 -971.966
-20.3783 -16.964899 -971.48199
-16.3253 -17.104099 -967.961
-15.3027 -17.145901 -967.54999
-14.8316 -17.1623 -967.27197
-12.472 -17.267401 -965.83398
-12.051 -17.2645 -965.474
-11.0896 -17.302999 -964.81403
-8.23561 -17.4212 -963.28101
-7.7892499 -17.443199 -962.92297
-2.82112 -17.648399 -961.177
0.75440902 -17.831699 -960.625
2.2089 -17.8869 -960.091
5.9443598 -18.061501 -959.83698
7.5302801 -18.1348 -959.81
9.6642199 -18.2332 -959.841
12.4334 -18.394199 -959.92401
15.1116 -18.499399 -960.31598
16.864201 -18.5697 -960.46899
23.1712 -18.8654 -961.33301
-32.108299 -16.0289 -988.15002
-30.164301 -16.098 -984.06897
-29.8006 -16.0961 -983.32001
-29.4044 -16.1294 -982.59497
-28.986 -16.1373 -981.93298
-28.114401 -16.1406 -980.60602
-25.2013 -16.238701 -976.35797
-24.7756 -16.261101 -976.01801
-21.256901 -16.3787 -972.24902
-20.844101 -16.4091 -971.96399
-20.377501 -16.4233 -971.487
-19.8813 -16.438601 -971.01398
-16.784401 -16.5362 -968.12903
-16.364901 -16.5452 -968.13098
-15.2985 -16.625 -967.42999
-12.4602 -16.7323 -965.612
-11.5931 -16.756001 -965.32397
-11.1006 -16.791201 -964.90002
-4.2790298 -17.067499 -962.03101
-2.83881 -17.124001 -961.11902
-2.3889301 -17.142099 -960.96503
-1.91737 -17.1719 -961.13202
-0.31178901 -17.2563 -960.61401
2.68519 -17.370001 -960.00897
4.82444 -17.4715 -959.60303
7.0169501 -17.549601 -959.65399
7.5055599 -17.564899 -959.617
7.9938898 -17.623501 -959.75098
9.6592302 -17.696699 -959.96301
12.9191 -17.8353 -959.81201
16.8848 -18.063 -960.42401
23.7181 -18.358999 -961.39203
-29.379499 -15.5749 -982.54401
-28.955099 -15.5945 -981.82599
-27.6537 -15.6009 -979.91998
-26.395 -15.6626 -978.10901
-25.192801 -15.7133 -976.33197
-24.7465 -15.7473 -975.901
-21.6418 -15.8278 -972.552
-21.2386 -15.8623 -972.17297
-20.8305 -15.8824 -971.90302
-20.349701 -15.8778 -971.39801
-19.8631 -15.914 -970.93597
-17.165001 -16.007799 -968.59802
-16.7852 -16.027201 -968.099
-16.3778 -16.047701 -968.13702
-15.2886 -16.0814 -967.409
-12.4597 -16.206301 -965.63599
-12.0353 -16.2213 -965.41302
-7.7756801 -16.3978 -962.95898
-4.2737799 -16.5625 -961.88898
-2.84374 -16.614901 -961.28003
1.76653 -16.810301 -960.11401
2.2109201 -16.819599 -959.89697
6.9862299 -17.033199 -959.45502
-30.1131 -15.01 -983.797
-28.9506 -15.0334 -981.90997
-28.5186 -15.0679 -981.29999
-26.0054 -15.1464 -977.68903
-25.5947 -15.1672 -976.87097
-25.1954 -15.1767 -976.45801
-23.8195 -15.2257 -974.901
-22.042299 -15.309 -973.034
-21.630199 -15.2975 -972.44299
-21.239201 -15.3476 -972.23102
-17.138 -15.4879 -968.64301
-16.3307 -15.4964 -967.71899
-15.8282 -15.5225 -967.25403
-14.7696 -15.5883 -966.96698
-11.5756 -15.7155 -965.08801
-2.81161 -16.079599 -961.08197
-2.3727801 -16.062401 -960.98901
-1.9033 -16.111 -960.93903
0.782884 -16.2335 -960.34601
1.76463 -16.2778 -960.04401
2.2194099 -16.3018 -960.008
4.2736101 -16.3836 -959.82202
4.8197699 -16.434099 -959.77399
15.6917 -16.9326 -959.99402
-30.1171 -14.4799 -983.81403
-29.745001 -14.4478 -983.099
-28.4944 -14.5279 -981.13898
-25.974199 -14.6295 -977.47302
-21.2202 -14.7743 -972.13
-20.791599 -14.8134 -971.737
-15.8505 -14.9992 -967.44702
-12.4367 -15.1559 -965.51703
-11.1437 -15.1732 -964.349
-7.2861099 -15.3579 -962.51898
-6.8212099 -15.3713 -962.43701
-5.8055201 -15.4329 -962.07001
-2.8248 -15.5473 -961.03998
-1.88264 -15.5934 -960.93103
8.4277601 -16.0651 -959.15002
10.7925 -16.182899 -959.37598
11.3809 -16.1945 -959.80902
17.494301 -16.471001 -960.15503
18.038099 -16.5161 -960.39899
-27.6119 -14.0208 -979.91699
-24.719601 -14.153 -975.97101
-21.2145 -14.2792 -972.17902
-20.306 -14.3232 -971.34698
-17.501301 -14.4268 -968.91199
-16.7022 -14.4727 -968.12299
-16.304701 -14.4808 -967.70697
-15.833 -14.4843 -967.27502
-14.7671 -14.5356 -967.00201
-12.423 -14.6163 -965.30499
-11.627 -14.6545 -964.44397
-9.1148996 -14.7782 -963.79999
-3.2678699 -15.0318 -961.15802
-2.8013 -15.0449 -960.81799
-2.36464 -15.0682 -960.84302
-0.28226501 -15.1525 -960.19397
4.3006701 -15.3646 -959.58002
5.9440699 -15.435 -959.65601
6.9629502 -15.4967 -959.18103
9.5864201 -15.5714 -959.25897
10.2198 -15.6197 -959.34802
11.9382 -15.6995 -959.51599
12.4742 -15.7421 -959.49701
12.949 -15.7702 -959.65802
13.4349 -15.7768 -959.46698
15.1349 -15.8534 -959.64301
22.542 -16.191299 -960.74701
28.009001 -16.479 -962.56897
28.651199 -16.5114 -963.06299
30.457701 -16.582899 -963.65503
35.5023 -16.871901 -967.466
-25.553301 -13.5669 -976.87
-20.756701 -13.7673 -971.633
-20.2824 -13.7924 -971.17401
-12.8603 -14.0551 -965.70801
-12.081 -14.1344 -964.685
-11.6785 -14.1598 -964.284
-2.3536799 -14.551 -960.73901
-0.829714 -14.6246 -960.474
-0.280292 -14.6371 -960.18799
0.79531401 -14.7555 -960.31799
1.72663 -14.8241 -960.06097
2.2809 -14.7236 -959.69598
2.73457 -14.7579 -959.45697
4.8428202 -14.8815 -959.26599
6.9736099 -15.0048 -959.15503
7.4492998 -15.016 -958.96399
7.9249201 -15.0396 -959.03302
10.191 -15.0987 -959.10101
11.9529 -15.2027 -959.41199
12.4729 -15.2177 -959.57397
12.938 -15.249 -959.59003
13.9489 -15.2893 -959.54199
15.1247 -15.3685 -959.70898
16.926201 -15.4413 -960.138
17.5042 -15.4628 -959.93201
18.0567 -15.473 -960.02197
18.557501 -15.5034 -960.25702
21.378901 -15.5882 -960.638
22.5812 -15.6927 -960.83801
23.226999 -15.7365 -960.88202
24.3508 -15.7932 -961.60199
27.327499 -15.921 -962.23499
28.0432 -15.9765 -962.66998
28.6866 -15.9699 -963.07599
-20.7418 -13.2663 -971.61102
-20.273001 -13.2921 -971.237
-17.0581 -13.4171 -968.54401
-15.318 -13.503 -966.98798
-14.7712 -13.5086 -966.75299
-12.9103 -13.5661 -965.276
-11.6858 -13.6595 -964.12201
-11.1816 -13.6786 -963.93701
-7.6976099 -13.8142 -962.84698
2.25524 -14.2558 -959.69598
2.7142301 -14.3082 -959.45801
6.9843001 -14.4676 -959.047
7.4663701 -14.5226 -959.19397
9.5765696 -14.586 -958.89099
10.7914 -14.6367 -959.13
12.4461 -14.7412 -959.58899
12.9341 -14.7417 -959.573
13.4287 -14.7648 -959.54999
15.1258 -14.8557 -959.55701
15.7349 -14.8753 -959.88599
16.321301 -14.8906 -959.68103
17.527599 -14.9573 -959.88702
18.054501 -14.9819 -959.92902
18.5539 -14.9924 -960.27197
20.857901 -15.098 -960.74103
23.3151 -15.2538 -961.19501
28.7451 -15.4852 -963.047
30.450399 -15.5345 -963.44897
-25.108 -12.5604 -976.31702
-23.75 -12.618 -974.89301
-20.7271 -12.73 -971.60101
-18.3678 -12.8572 -969.784
-17.053699 -12.9085 -968.44598
-12.5488 -13.1112 -964.65601
-8.1174402 -13.2828 -963.02301
-7.6704102 -13.2909 -962.62799
-2.7729299 -13.5249 -960.69397
-0.245873 -13.5977 -960.12701
0.82167202 -13.6747 -960.19501
2.26337 -13.756 -959.77002
2.7248499 -13.7894 -959.54901
3.69943 -13.8268 -958.96503
4.3243198 -13.8537 -959.362
6.99857 -13.9496 -959.24402
10.1725 -14.114 -958.73798
10.7543 -14.1134 -959.005
12.9391 -14.2181 -959.38
15.7469 -14.3486 -959.47699
16.332199 -14.4117 -959.68903
17.5077 -14.4374 -959.91803
18.053499 -14.4494 -960.03699
18.568399 -14.481 -960.03497
21.4823 -14.626 -960.66998
23.368999 -14.6993 -961.09698
23.9284 -14.7202 -961.70898
34.077301 -15.2133 -966.328
-23.274 -12.0917 -974.23499
-21.1397 -12.1908 -971.89502
-20.7143 -12.2126 -971.625
-20.234301 -12.2325 -971.01801
-16.215599 -12.3491 -967.58502
-15.7543 -12.4177 -967.09003
-15.2965 -12.4235 -966.74103
-12.9778 -12.5476 -965.026
-12.5495 -12.5692 -964.55103
-11.5715 -12.6189 -964.41101
-7.6570501 -12.7661 -962.513
-6.8032598 -12.7991 -962.37701
-6.2665 -12.8364 -961.93201
-4.1872902 -12.9186 -961.789
-2.7493601 -12.9784 -960.729
-1.82978 -13.0094 -960.716
-0.77351397 -13.0653 -960.26898
0.83043402 -13.152 -960.125
1.81976 -13.169 -959.69897
2.27441 -13.1812 -959.427
3.70207 -13.296 -959.02502
7.0005202 -13.4155 -959.14697
7.95718 -13.4649 -958.841
10.1515 -13.5577 -958.86102
13.9609 -13.7181 -959.38202
14.5431 -13.7622 -959.49701
16.3459 -13.8434 -959.58502
16.935499 -13.8569 -959.672
17.5214 -13.8961 -959.81403
20.8666 -14.0453 -960.65503
21.4991 -14.0579 -960.742
22.1236 -14.0887 -960.854
22.748501 -14.1188 -961.16101
23.930401 -14.1852 -961.40601
28.1992 -14.3691 -963.02002
28.8678 -14.4129 -963.33398
36.096802 -14.7482 -967.22101
-29.620199 -11.3184 -983.18799
-28.799101 -11.328 -981.62598
-25.854099 -11.4584 -977.25598
-25.0662 -11.5003 -976.19897
-24.171499 -11.5673 -975.315
-21.5133 -11.6554 -972.20502
-21.1049 -11.6901 -971.672
-20.693899 -11.6865 -971.41498
-19.7465 -11.7255 -970.60498
-17.4454 -11.8126 -968.65399
-17.0445 -11.7992 -968.19897
-16.645599 -11.8318 -967.66901
-12.5374 -12.0314 -964.63501
-5.1968002 -12.3465 -961.659
-2.7515399 -12.44 -960.573
-0.24537601 -12.5667 -960.091
1.83084 -12.6798 -959.53802
2.2687399 -12.6882 -959.59601
3.24699 -12.7202 -959.42401
7.4827499 -12.9268 -958.78198
11.3091 -13.0934 -958.80402
11.883 -13.1261 -958.78699
12.3742 -13.1435 -958.86401
14.5517 -13.24 -959.07202
16.948601 -13.3418 -959.67902
18.0658 -13.396 -959.94501
18.5755 -13.4386 -959.96997
22.7591 -13.6155 -960.88397
-24.5914 -10.9886 -975.638
-23.695499 -11.0216 -974.70203
-20.214399 -11.175 -971.03699
-17.0951 -11.2914 -967.74402
-15.8103 -11.374 -966.54999
-13.8699 -11.4252 -965.48401
-12.5122 -11.4834 -964.63702
-11.0223 -11.5505 -963.54999
-9.0108805 -11.6474 -963.24103
-7.2047501 -11.7295 -962.34497
-5.70298 -11.7954 -961.69202
-2.7544401 -11.9262 -960.67902
-1.8151799 -12.006 -960.41199
-0.76484001 -12.0174 -960.22699
3.27074 -12.2022 -959.435
4.3736501 -12.26 -959.03998
11.3202 -12.5772 -958.89398
12.8684 -12.6209 -958.69202
15.1651 -12.7258 -959.39697
20.8801 -12.9999 -960.47601
22.1294 -13.0391 -960.75702
22.758699 -13.0995 -961.00299
36.694901 -13.7333 -966.99402
-34.145699 -10.0354 -993.30103
-30.291599 -10.2198 -984.52301
-29.9252 -10.2345 -983.71698
-25.438 -10.4267 -976.716
-21.120399 -10.5785 -971.61902
-17.140499 -10.7825 -967.53198
-12.488 -10.9485 -964.43903
-8.0670099 -11.1783 -962.79901
-5.19203 -11.2945 -961.40503
-2.2954099 -11.4191 -960.341
-1.81399 -11.4678 -960.388
-1.31057 -11.4564 -960.03101
-0.21888299 -11.511 -959.87097
4.8832402 -11.7725 -958.88098
5.3801899 -11.7542 -959.11401
11.331 -12.0114 -958.74701
12.8637 -12.087 -958.63898
13.3714 -12.1576 -958.586
14.5484 -12.1773 -959.008
16.9524 -12.2841 -959.51501
18.0714 -12.323 -959.72198
-33.6562 -9.5171099 -992.685
-29.8976 -9.6935797 -983.79303
-28.7202 -9.7477903 -981.591
-27.8689 -9.7665796 -980.39301
-26.1863 -9.83846 -977.87799
-24.167 -9.9074402 -974.76202
-23.7223 -9.9421797 -974.05298
-21.5882 -10.0236 -971.55103
-21.173401 -10.0835 -971.04401
-20.7596 -10.0746 -970.81
-19.3664 -10.1691 -969.56702
-16.2887 -10.299 -966.91803
-12.4984 -10.4297 -964.67102
-11.4546 -10.4439 -964.12299
-7.6230402 -10.6643 -962.51501
-6.7442799 -10.7032 -962.17603
-5.1828799 -10.7815 -961.44299
-0.73788899 -10.9758 -960.15601
-0.213724 -10.9771 -959.93103
0.87061799 -11.052 -959.948
15.7801 -11.7095 -959.30402
18.0826 -11.8177 -959.75897
-29.8633 -9.1463299 -983.758
-25.841101 -9.2958603 -977.00098
-25.0942 -9.35219 -975.39801
-24.703199 -9.3725204 -975.10901
-20.784901 -9.5469599 -970.60797
-20.305401 -9.5866404 -970.11298
-17.531 -9.7018499 -967.72601
-17.1245 -9.71842 -967.41498
-16.2757 -9.7271404 -966.96503
-8.9769602 -10.0651 -962.99902
-8.0348701 -10.1066 -962.65399
-6.7093101 -10.1709 -961.96002
-5.1621399 -10.2459 -961.29199
-0.726547 -10.4246 -959.94897
0.318955 -10.4751 -959.66101
0.886002 -10.5103 -959.79498
2.3234899 -10.6056 -959.13702
2.7841201 -10.6012 -959.19501
4.88517 -10.7136 -958.87598
6.46278 -10.7835 -958.92603
7.5217099 -10.8087 -958.71997
12.4017 -11.0227 -958.60797
17.555901 -11.2415 -959.50403
18.6096 -11.298 -959.76001
23.957701 -11.5307 -961.02802
-25.149599 -8.8513203 -975.31897
-24.711599 -8.88311 -974.87598
-21.5966 -8.98452 -971.19299
-20.775999 -9.0452995 -970.53998
-20.3111 -9.0554504 -970.099
-17.5082 -9.2040396 -967.73297
-17.098101 -9.1993504 -967.47198
-16.249399 -9.2387199 -966.86603
-15.7584 -9.2543802 -966.28101
-14.297 -9.3336496 -965.64001
-8.9569998 -9.5715399 -963.08502
-7.5843201 -9.6373796 -962.25403
-5.6754298 -9.7203798 -961.492
-2.7065799 -9.8601198 -960.59198
-0.72576803 -9.9453602 -959.98297
2.7964599 -10.0646 -959.073
3.7752299 -10.1356 -959.005
7.0370698 -10.3107 -958.5
12.4099 -10.5021 -958.42999
13.3879 -10.554 -958.349
13.9318 -10.6053 -958.40601
15.7825 -10.6859 -959.33801
17.5853 -10.7481 -959.40698
18.1096 -10.7696 -959.59698
18.6094 -10.7982 -959.67297
20.9121 -10.8983 -960.14801
23.3965 -10.9836 -961.03198
23.952299 -11.0163 -961.04901
26.935301 -11.1522 -962.08301
34.604099 -11.5163 -965.70801
35.326099 -11.5182 -966.04797
-21.1768 -8.4955997 -970.849
-17.073099 -8.67031 -967.362
-10.4599 -8.9740801 -963.77802
-8.9559498 -9.05091 -963.25598
-7.99929 -9.1062098 -962.474
-2.6863899 -9.3443098 -960.34497
-1.24746 -9.40662 -959.83899
-0.69872099 -9.4106398 -960.03699
4.9437699 -9.7006798 -958.69598
6.5451698 -9.7704697 -958.64502
8.55128 -9.8526402 -958.46997
12.405 -10.0126 -958.45099
13.3955 -10.0472 -958.33698
15.1966 -10.131 -959.052
16.385799 -10.1713 -959.23602
16.9814 -10.2209 -959.651
17.5786 -10.2475 -959.37701
18.096399 -10.2478 -959.64001
19.676201 -10.3171 -959.90503
20.905199 -10.3899 -960.13202
22.167801 -10.4272 -960.43903
23.4039 -10.4816 -960.88397
23.9666 -10.5004 -961.12201
27.594299 -10.6824 -962.15601
28.249201 -10.6858 -962.742
30.185301 -10.7835 -963.63702
30.760201 -10.8095 -963.91602
36.063999 -11.0244 -966.29303
-16.6569 -8.1960602 -967.10199
-16.224001 -8.2266502 -966.88501
-1.74968 -8.8718004 -960.39697
-0.677396 -8.9307604 -960.14502
2.36391 -9.0768805 -959.11603
4.4070501 -9.1607304 -958.88599
4.9678898 -9.1331797 -958.81
10.229 -9.3975201 -958.32397
12.4333 -9.5071898 -958.35602
13.4258 -9.54249 -958.38
14.5925 -9.6217203 -958.83197
15.2207 -9.6275101 -958.93597
15.8001 -9.6543703 -959.31299
16.394199 -9.6665697 -959.284
18.1141 -9.7446203 -959.716
21.5431 -9.88939 -960.211
23.409 -9.9709501 -960.93298
27.5956 -10.1444 -962.41901
28.261 -10.1722 -962.50098
34.595299 -10.4566 -965.36798
38.0326 -10.6071 -967.93103
-20.691099 -7.50142 -970.51202
-17.0448 -7.6581802 -967.53003
-11.435 -7.91431 -964.23602
-2.6463001 -8.3060102 -960.25
-1.72025 -8.3452101 -960.21301
-0.139121 -8.4233303 -959.78998
2.35589 -8.5039997 -959.16699
3.7439401 -8.57265 -959.33899
9.67556 -8.8753796 -958.40698
10.2474 -8.8934898 -958.31097
12.9448 -9.0146103 -958.32898
13.4406 -9.0314598 -958.367
15.2307 -9.0980101 -958.992
15.8169 -9.1540098 -959.22302
16.407499 -9.14849 -959.23199
17.0023 -9.19415 -959.22998
17.5839 -9.2188702 -959.40997
18.1315 -9.2210102 -959.36798
18.633699 -9.2480497 -959.64301
20.9259 -9.3559799 -959.94299
21.540701 -9.3904896 -960.26898
22.182301 -9.40275 -960.37799
22.809099 -9.4341002 -960.37701
23.4181 -9.4687595 -960.77399
23.979099 -9.4791498 -960.841
24.522499 -9.5036402 -961.242
25.629999 -9.5565205 -961.47699
27.6173 -9.6189299 -962.39899
28.2696 -9.6616497 -962.55701
29.595501 -9.7139797 -963.263
30.195299 -9.7451601 -963.401
34.610802 -9.94526 -965.33801
36.0532 -10.003 -966.12799
41.8885 -10.2186 -970.755
-29.386999 -6.5026698 -983.23102
-26.1381 -6.6696901 -977.23602
-25.373199 -6.7407699 -976.159
-24.969601 -6.7477498 -975.64801
-24.5194 -6.7698398 -975.245
-21.0751 -6.9454198 -971.29199
-20.636999 -6.9337602 -970.75598
-20.1555 -6.9857402 -970.42499
-17.825701 -7.0818901 -967.90997
-16.6042 -7.1365399 -966.93903
-15.689 -7.1768098 -966.34998
-14.6781 -7.2143898 -965.80103
-13.6385 -7.2554898 -965.66998
-11.409 -7.3835702 -964.13898
-1.20002 -7.8510499 -959.755
-0.664307 -7.8717599 -959.68298
1.92638 -7.9889398 -959.20801
2.37766 -8.0033903 -959.29102
6.1261401 -8.1645699 -958.56
9.1113501 -8.2902699 -958.00403
12.4537 -8.4567499 -958.44299
13.4483 -8.5045795 -958.52698
14.0041 -8.5188103 -958.664
17.012199 -8.6501503 -959.26599
18.641199 -8.7089195 -959.43701
20.2973 -8.7726402 -959.75201
20.943199 -8.8096504 -959.82202
22.815901 -8.8923702 -960.42999
23.4133 -8.92241 -960.65002
23.989401 -8.9214497 -960.90802
27.6238 -9.0890598 -962.289
30.2141 -9.1916103 -963.46301
34.6395 -9.3723898 -965.12799
-29.7164 -5.9604301 -983.94098
-29.3545 -5.9805002 -983.25
-28.964199 -5.99435 -982.48602
-25.730101 -6.16992 -976.56598
-25.349199 -6.18713 -976.14697
-20.099001 -6.42308 -970.45599
-19.629499 -6.4555998 -970.12201
-16.586901 -6.6325202 -967.104
-15.6553 -6.6652198 -966.30798
-15.1692 -6.6895199 -966.23901
-13.6045 -6.7428498 -965.63702
-12.2637 -6.8108201 -964.66498
-11.3993 -6.8610501 -964.323
-7.5095801 -7.03019 -962.00702
-5.08325 -7.1540298 -961.20398
-3.0766101 -7.24895 -960.44299
-1.72121 -7.3109798 -960.13
-0.65446198 -7.35921 -959.90503
2.3905799 -7.5059099 -958.86499
2.8396101 -7.49681 -958.81897
3.8485601 -7.5328002 -958.65399
9.6935101 -7.80053 -958.22601
12.9679 -7.9746599 -958.19202
15.2575 -8.0451603 -958.84003
15.8402 -8.0745497 -959.03802
16.4272 -8.0756998 -958.91602
18.1443 -8.1688004 -959.48901
18.642799 -8.1748505 -959.47998
22.2059 -8.3335505 -960.15503
22.828199 -8.3638802 -960.45898
23.4377 -8.3967896 -960.62799
24.0117 -8.4045897 -960.86902
26.974199 -8.5225801 -961.849
-29.3127 -5.4246898 -983.164
-28.9242 -5.4433799 -982.422
-28.1022 -5.51929 -981.11798
-25.313999 -5.65589 -976.065
-16.103701 -6.1230402 -966.69702
-11.3879 -6.3232498 -964.13599
-6.59866 -6.546 -961.59198
-4.04351 -6.6585999 -960.729
-2.6225801 -6.7286301 -960.28699
-1.70676 -6.7644501 -959.96399
3.80934 -7.0552702 -958.87701
4.4914098 -7.02633 -958.776
16.4447 -7.5580502 -958.98602
18.1651 -7.6317201 -959.20801
18.6698 -7.6539102 -959.34601
22.2059 -7.81041 -960.03302
-28.493401 -4.96488 -981.77802
-28.072399 -4.9703302 -981.04602
-23.9778 -5.18153 -974.625
-21.3458 -5.3324599 -971.63702
-20.948 -5.3267899 -971.297
-20.046 -5.3769999 -970.40601
-15.0396 -5.6001 -966.388
-12.2293 -5.7532101 -964.44501
-11.8045 -5.7852898 -964.27502
-10.3677 -5.82377 -963.77899
-8.8361902 -5.9095502 -962.505
-7.9217601 -5.9679098 -962.39001
-3.0566499 -6.1828098 -960.513
-2.6036999 -6.20293 -960.12903
-0.106209 -6.3049002 -959.64801
9.7578897 -6.7508998 -958.10101
12.5138 -6.87043 -958.22302
13.0512 -6.8727598 -958.39301
15.2767 -6.9688101 -958.68903
17.6325 -7.0772901 -959.19202
-33.193901 -4.0731301 -993.77899
-30.7232 -4.2690201 -986.55103
-28.880899 -4.3989701 -982.66498
-28.4597 -4.4205799 -981.85498
-26.040899 -4.5448799 -977.336
-25.6504 -4.56428 -976.63898
-25.2658 -4.5886202 -976.16101
-24.397301 -4.65029 -975.07703
-21.3174 -4.78547 -971.60797
-20.031601 -4.8575702 -970.38501
-16.8283 -5.00072 -967.62402
-16.419201 -5.0027299 -967.25702
-15.9908 -5.0588799 -967.00299
-15.0219 -5.08986 -966.44202
-12.212 -5.2564902 -964.47302
-5.55722 -5.5547299 -961.16199
-2.58022 -5.6854901 -960.117
2.43448 -5.8896198 -958.98401
-24.824699 -4.0773201 -975.54999
-20.9139 -4.28478 -971.33002
-20.008499 -4.3169498 -970.36499
-16.3999 -4.4924202 -967.30902
-15.5025 -4.5483298 -966.78003
-13.552 -4.6311102 -965.48199
-12.2044 -4.7023301 -964.55701
-9.8234701 -4.8222699 -963.14899
-7.44453 -4.9207602 -962.12701
-1.63199 -5.1778202 -960.03601
-0.056097999 -5.2664599 -959.49597
2.9133999 -5.4120698 -958.77002
3.4602399 -5.46878 -958.823
12.6282 -5.8298502 -958.58002
15.3093 -5.93469 -958.776
18.1933 -6.0323901 -959.258
18.702101 -6.06598 -959.20801
22.8708 -6.2316799 -960.099
23.4809 -6.2600899 -960.47101
24.5618 -6.3131299 -960.76703
-25.584101 -3.52651 -976.797
-16.804001 -3.9896901 -967.80103
-15.9516 -4.03795 -966.96899
-12.1823 -4.2031898 -964.53003
-11.3193 -4.2376399 -963.97101
-10.3127 -4.2867699 -963.41302
-7.4131799 -4.4163799 -961.89001
-6.5363598 -4.4750099 -961.54401
-5.5117102 -4.5019999 -961.18103
-4.99369 -4.52672 -960.85602
-2.9939101 -4.6296902 -960.32898
-2.5490201 -4.6496301 -959.93103
-0.542252 -4.7326198 -959.73199
-0.016578401 -4.7717299 -959.388
1.04848 -4.80162 -959.453
2.9347501 -4.9334798 -958.88397
8.1556702 -5.09934 -958.14203
9.7992697 -5.18682 -958.04999
10.9575 -5.2710099 -958.21399
12.6424 -5.2898898 -958.52802
13.1481 -5.3257198 -958.35498
13.6299 -5.3382301 -958.60901
15.32 -5.4039898 -958.75299
15.8908 -5.4296999 -958.76898
17.0842 -5.4773998 -958.95502
17.6758 -5.5282302 -958.97498
18.218399 -5.5389199 -959.10999
21.637699 -5.6701398 -959.875
22.262199 -5.70995 -960.06897
27.538601 -5.9530201 -961.53497
28.201599 -5.9630899 -961.64398
-20.4562 -3.28653 -971.05499
-16.7684 -3.4551599 -967.75598
-15.9457 -3.5236299 -967.01703
-15.4433 -3.5141301 -966.466
-12.1694 -3.7004199 -964.573
-11.7366 -3.72123 -964.10999
-11.2913 -3.73171 -963.87903
-10.7942 -3.7426 -963.74597
-2.5434999 -4.1522999 -960.04102
0.055845499 -4.25705 -959.17102
3.9782701 -4.3893099 -958.56598
5.1122499 -4.4717002 -958.59302
7.7315402 -4.6055002 -958.52399
9.8528099 -4.68889 -958.52002
10.418 -4.7126398 -958.466
12.6804 -4.7835698 -958.51703
13.1598 -4.81463 -958.60101
14.7408 -4.8666401 -958.79401
15.3379 -4.9043298 -958.63
16.516899 -4.9703798 -958.80103
17.7013 -4.9945302 -958.92798
18.2302 -5.0293398 -959.02698
18.7181 -5.04638 -959.30603
19.788799 -5.0949602 -959.42798
21.0238 -5.1259999 -959.56598
21.6628 -5.15909 -959.78101
22.2754 -5.1877799 -959.974
22.9056 -5.2085099 -960.07098
23.518299 -5.2447 -960.53802
24.0702 -5.2618699 -960.43701
28.266701 -5.42766 -962.078
28.9072 -5.47508 -962.026
29.592699 -5.4904099 -962.34998
30.168501 -5.5359402 -962.89801
-11.7197 -3.1973 -964.177
-6.9773998 -3.4402001 -961.94897
-4.95227 -3.5172501 -960.93103
-2.5118899 -3.62233 -959.93298
0.061282501 -3.75949 -959.64398
1.1867599 -3.8153501 -959.90997
2.5677299 -3.85783 -959.047
11.6393 -4.24088 -958.74402
12.6881 -4.3034101 -958.401
13.1694 -4.31007 -958.255
13.664 -4.33181 -958.49597
14.1982 -4.34092 -958.62097
14.7562 -4.3914299 -958.60303
15.34 -4.4122701 -958.70599
15.9474 -4.4128799 -958.63
17.1159 -4.4659801 -958.91101
17.7192 -4.47648 -958.83899
18.2295 -4.5149398 -959.16998
19.2596 -4.5506101 -959.13501
19.8069 -4.5870299 -959.31
20.4132 -4.6082301 -959.59399
22.2722 -4.67906 -960.034
22.9165 -4.70083 -960.09698
23.533199 -4.73526 -960.19598
27.6513 -4.90098 -961.93298
28.3323 -4.91119 -962.13599
28.9911 -4.9333801 -962.37299
29.647499 -4.9807701 -962.77899
34.739601 -5.1550202 -965.27301
43.7873 -5.4348602 -972.26501
-16.322599 -2.4595399 -967.35498
-15.4154 -2.49301 -966.59198
-11.2626 -2.70012 -964.03003
-10.2655 -2.7377701 -963.34003
-5.4491 -2.9716899 -961.16602
0.099239402 -3.2209301 -959.58197
1.21983 -3.2909701 -959.75098
4.03508 -3.42805 -958.69
10.4883 -3.68068 -958.44702
11.0606 -3.7067599 -958.20203
12.7098 -3.7563 -958.33002
13.1853 -3.78088 -958.41602
14.2013 -3.823 -958.53003
15.3463 -3.87587 -958.78802
15.9549 -3.9133999 -958.78302
16.544399 -3.9242699 -958.71503
17.128201 -3.95469 -958.87598
18.264099 -4.01684 -958.90503
18.7593 -4.0192599 -959.05103
21.6707 -4.14044 -959.86902
22.299299 -4.1711798 -959.92102
22.938999 -4.1873498 -959.93103
23.5443 -4.2028399 -960.12402
24.113701 -4.20997 -960.34601
27.048201 -4.33987 -961.59601
27.7083 -4.36094 -961.77002
29.0364 -4.3999901 -962.552
29.691099 -4.4224801 -962.65601
30.298401 -4.4550099 -962.95599
-20.363501 -1.6858701 -970.73798
-16.323099 -1.9197 -967.32397
-15.8691 -1.95259 -966.83801
-15.3953 -1.9584399 -966.56201
-12.0882 -2.1433899 -964.55798
-10.2316 -2.2112899 -963.34698
-9.7304296 -2.2650001 -963.03998
-7.3632498 -2.3380401 -961.914
-6.9282699 -2.3854499 -961.672
-0.409325 -2.7278399 -959.83502
2.6202099 -2.8429899 -959.29602
8.3398199 -3.05129 -958.57703
12.7224 -3.2497301 -958.26202
13.21 -3.23998 -958.34302
13.7006 -3.28987 -958.508
15.3886 -3.34428 -958.46802
15.9608 -3.3596201 -958.664
16.548599 -3.3907299 -958.73199
17.7565 -3.46033 -958.73901
18.2626 -3.46103 -958.987
20.4492 -3.5299201 -959.49402
21.0716 -3.5738399 -959.54102
22.3064 -3.6222799 -959.80902
23.5632 -3.6565299 -960.35699
28.4132 -3.8498399 -961.961
-29.366501 -0.62830901 -984.367
-28.2292 -0.71442699 -982.11401
-24.678101 -0.91850698 -975.828
-21.169399 -1.1259201 -971.60199
-20.759399 -1.16714 -971.12299
-20.3365 -1.17594 -970.70001
-19.881701 -1.21156 -970.33002
-15.3654 -1.43301 -966.48102
-12.5064 -1.58251 -964.66901
-11.642 -1.64255 -964.099
-11.2109 -1.6507601 -963.97101
1.23454 -2.2383699 -959.77301
2.18328 -2.27736 -959.29199
10.5432 -2.6373999 -958.42297
11.1088 -2.6694701 -958.48798
12.7416 -2.71913 -958.245
13.2238 -2.7437601 -958.20099
17.7563 -2.9268401 -958.99103
18.286699 -2.9468501 -959.09198
21.078199 -3.0344901 -959.54602
21.7127 -3.05862 -959.70801
22.317301 -3.1047001 -960.05298
22.941799 -3.10343 -960.09998
24.690901 -3.20032 -960.479
35.553799 -3.5776401 -965.513
-25.4361 -0.35631499 -976.88397
-25.056 -0.385842 -976.35199
-19.8493 -0.67189199 -970.43103
-16.264099 -0.857449 -967.26501
-15.8217 -0.89804399 -966.89301
-15.3333 -0.89993101 -966.39801
-13.4161 -1.02244 -965.36401
-12.0855 -1.06418 -964.40198
-11.5967 -1.1084599 -964.11603
-11.1839 -1.12625 -963.77698
-10.1816 -1.18374 -963.44098
2.6500101 -1.77143 -959.08502
4.0638299 -1.86255 -958.901
4.6834002 -1.88033 -958.70502
8.9283895 -2.05339 -958.513
9.3751497 -2.0829999 -958.42297
15.4081 -2.2918999 -958.44397
18.8158 -2.41556 -958.95599
21.1045 -2.5237999 -959.427
22.3622 -2.5629001 -959.98499
34.827801 -3.0545299 -965.008
-31.849701 0.66393799 -991.38501
-29.6336 0.472922 -985.23602
-28.951 0.43025601 -983.77301
-25.806801 0.21530899 -977.74701
-24.596901 0.131567 -975.56702
-24.171101 0.097751997 -975.30603
-20.2878 -0.107554 -970.789
-19.8151 -0.14866699 -970.315
-16.2407 -0.31982401 -967.315
-15.3251 -0.37126699 -966.43201
-14.3504 -0.432078 -965.90002
-11.5796 -0.598189 -964.11499
-10.6768 -0.60504699 -963.55402
-10.1596 -0.657875 -963.58698
-8.6727896 -0.71977597 -962.63202
1.3097 -1.17132 -959.52502
1.7198499 -1.22306 -959.33698
13.726 -1.7226501 -958.36902
15.4163 -1.78022 -958.58801
16.5975 -1.82807 -958.659
21.7544 -2.0018401 -959.65997
-29.2563 0.99110001 -984.60699
-28.5404 0.92401803 -983.14301
-25.3675 0.72074801 -976.92603
-25.003099 0.697393 -976.52197
-24.5737 0.64595002 -975.76398
-21.0725 0.45785201 -971.58197
-19.806 0.39452699 -970.505
-16.607599 0.20816299 -967.45801
-16.227301 0.19452301 -967.44098
-15.7588 0.181968 -966.76001
-14.3289 0.079147398 -965.86401
-10.6518 -0.101099 -963.60498
-2.7783699 -0.488197 -960.29999
-2.3111701 -0.50871599 -960.01001
12.7828 -1.11642 -958.45898
18.3386 -1.36549 -958.91998
-31.010401 1.65654 -989.16998
-28.868 1.4924999 -983.89697
-24.939199 1.2068599 -976.22699
-24.090401 1.15326 -975.19202
-23.2143 1.14389 -974.297
-21.052999 0.983989 -971.73602
-20.653601 0.96277499 -971.24298
-20.239201 0.96867001 -970.87402
-16.5826 0.72889203 -967.56799
-16.1877 0.71899402 -967.32703
-15.2524 0.66890401 -966.41998
-14.7911 0.65942597 -966.26099
-12.0024 0.50802302 -964.48901
-11.0963 0.46153 -963.71698
-2.28333 0.034933601 -960.271
1.32406 -0.103798 -959.57898
2.2572501 -0.143804 -959.01202
2.72703 -0.173741 -958.97498
3.7158401 -0.218191 -958.78497
29.1712 -1.2386301 -962.32202
-20.6367 1.47771 -971.44397
-20.199499 1.46435 -970.77301
-16.562901 1.24791 -967.58002
-16.157 1.2056299 -967.24799
-15.7214 1.1898299 -966.85901
-11.9706 1.00106 -964.45001
-11.528 0.99294502 -964.24701
-11.0894 0.98995697 -963.87903
-10.1095 0.92214298 -963.26001
0.243334 0.43124899 -959.591
2.3064899 0.33965799 -958.99402
3.21908 0.31498301 -958.78198
5.8798299 0.202011 -958.58801
8.9784899 0.0548894 -958.271
13.7969 -0.14699 -958.16901
15.4845 -0.206241 -958.18298
17.2616 -0.285739 -958.57703
17.849501 -0.304012 -958.75598
18.376699 -0.32017201 -958.93903
18.889799 -0.35175201 -958.94098
19.4009 -0.36816499 -959.005
19.9454 -0.37077099 -959.19397
21.186501 -0.41636801 -959.45697
22.405701 -0.47891599 -959.73999
24.244101 -0.53554398 -960.237
24.7686 -0.55574 -960.50897
27.85 -0.65597898 -961.55902
28.5121 -0.68941098 -961.83099
29.184299 -0.73996502 -962.36902
37.131199 -0.94302797 -966.62299
-15.717 1.73787 -967.01099
-11.9498 1.52829 -964.33698
-11.0458 1.48203 -963.76398
-8.5746899 1.33618 -962.46503
-7.1839399 1.26731 -961.69299
-6.3077402 1.23019 -961.32397
1.36919 0.94107997 -959.45099
2.75804 0.86631 -959.16302
6.9478502 0.664141 -958.37
9.44314 0.53656602 -958.30499
10.0887 0.49720901 -958.17297
12.8525 0.40804499 -958.02502
13.3312 0.410896 -958.21503
14.334 0.34404701 -958.38202
14.9049 0.32750401 -958.35101
15.5037 0.30987301 -958.34497
16.0975 0.27018401 -958.46399
16.687201 0.24556699 -958.47601
18.4041 0.18979201 -958.68903
19.4105 0.15704501 -958.974
20.5697 0.127721 -959.31097
21.8144 0.0609315 -959.53601
22.4491 0.034656901 -959.815
23.0744 0.025285101 -959.78601
23.6861 -0.00300794 -960.16998
24.241899 0.00378501 -960.22498
24.7833 -0.046562601 -960.50201
27.214399 -0.12625501 -961.22498
29.2197 -0.178923 -962.315
29.8678 -0.21796399 -962.59698
33.501202 -0.31743801 -964.11499
-15.69 2.2379 -966.98798
-11.9163 2.0283201 -964.24597
-10.0727 1.93346 -963.42499
-9.5317001 1.89166 -962.66199
-2.21474 1.56451 -960.271
1.3732001 1.40984 -959.55103
2.3573101 1.37409 -959.15601
2.78389 1.34104 -958.96002
4.82623 1.30309 -958.698
5.3846402 1.26464 -958.50598
6.97014 1.16559 -958.28302
7.9976902 1.09526 -958.12903
10.647 0.98555601 -958.216
13.3603 0.88483602 -958.23602
13.8348 0.86539602 -958.19397
16.1105 0.78438097 -958.427
16.696301 0.77431297 -958.55798
17.3032 0.75089401 -958.54102
19.9849 0.64314997 -959.22498
21.2136 0.594311 -959.56
21.8473 0.55986297 -959.46399
22.4631 0.543239 -959.79797
23.087999 0.556319 -959.94501
23.7253 0.50812399 -959.99103
24.2813 0.495711 -960.401
27.2367 0.38699499 -961.258
28.5704 0.35572699 -961.95801
29.226101 0.32778099 -962.17999
29.891899 0.290629 -962.53101
30.504 0.28565499 -962.97601
37.141701 0.089578196 -966.52698
-20.1248 3.0081601 -970.83698
-10.5238 2.46755 -963.49402
-9.5183802 2.41401 -962.76099
-7.10495 2.2885301 -961.89398
-6.68046 2.2616401 -961.75598
-6.2267299 2.2425799 -961.68597
-5.1918702 2.20103 -961.34198
0.310619 1.9515001 -959.49902
2.3794301 1.88164 -959.23401
2.8096001 1.85182 -959.13501
3.2940099 1.83359 -958.78003
4.8344898 1.78429 -958.69299
8.0012197 1.5917701 -958.39301
10.6874 1.52604 -958.112
14.3796 1.36843 -958.36499
14.947 1.33233 -958.27002
15.5406 1.3054301 -958.35498
16.1343 1.2840101 -958.38
17.3272 1.23655 -958.56897
18.448999 1.19819 -958.65997
19.445801 1.19566 -959.04901
20.623699 1.11146 -959.18903
21.2225 1.11528 -959.48102
24.8272 0.96648198 -960.59003
27.909599 0.893116 -961.75
28.576799 0.86772102 -962.00299
29.257299 0.83383799 -962.29401
29.940201 0.84669298 -962.46698
30.5532 0.82116097 -963.03802
37.159401 0.60612798 -966.55902
-24.385099 3.8285899 -976.01501
-20.8958 3.63006 -971.72803
-16.0483 3.3142099 -967.29797
-15.1528 3.2539501 -966.54498
-12.2893 3.0993099 -964.62903
-10.9979 3.0455 -963.78497
-10.4976 3.0278399 -963.41803
-8.5228901 2.9107001 -962.54102
-7.0423598 2.8464501 -961.89697
-2.6099899 2.6501999 -960.453
-2.1620901 2.6245799 -960.33801
3.85355 2.3292699 -958.815
4.25986 2.3505299 -958.60303
12.8876 1.97343 -958.12799
13.8878 1.91711 -958.35999
14.4073 1.90962 -958.12
15.5762 1.84638 -958.16803
16.168301 1.85018 -958.40802
16.754801 1.8083301 -958.32098
18.9769 1.73506 -958.88501
21.253401 1.642 -959.47699
21.8806 1.62493 -959.552
22.511 1.59861 -959.75897
23.123199 1.58526 -959.82898
23.764601 1.5709701 -960.11603
24.8526 1.5277801 -960.46503
27.276699 1.48034 -961.31702
28.6057 1.41225 -961.83502
29.264 1.38605 -962.19299
29.9666 1.3727601 -962.578
30.5644 1.34772 -963.03802
-20.489201 4.0956898 -971.38397
-19.6007 4.0613799 -970.39697
-16.4268 3.88449 -967.67999
-16.021299 3.8366101 -967.21301
-15.6053 3.8090401 -966.87598
-15.1254 3.77862 -966.58099
-11.419 3.5968101 -964.07703
-7.0266099 3.3789101 -962.17499
1.42308 2.96264 -959.742
2.8557999 2.94557 -959.12598
13.4282 2.4584899 -958.10498
13.8961 2.4421799 -958.11102
15.5888 2.3788099 -958.38
17.361099 2.30129 -958.64301
19.4893 2.24248 -958.98102
20.668501 2.1891401 -959.27197
21.276899 2.1790299 -959.35797
21.9105 2.15202 -959.62097
24.3298 2.0792699 -960.24597
27.304399 1.98227 -961.33398
33.635899 1.76926 -964.19702
36.617001 1.72031 -966.185
37.235901 1.68103 -966.651
-28.5783 5.2623601 -984.41602
-28.205 5.2140198 -983.55298
-27.811399 5.2019601 -982.89502
-24.730499 4.9272599 -976.91602
-24.3339 4.9133601 -976.18298
-23.4312 4.8260398 -974.95697
-16.408701 4.3863902 -967.65802
-16.0019 4.3575602 -967.20502
-15.5766 4.3302898 -967.09003
-11.8072 4.1416502 -964.27802
-11.3953 4.1216102 -964.086
-10.4593 4.0551901 -963.62701
0.38589901 3.56318 -959.49402
2.89416 3.4500401 -959.03601
4.9598598 3.3295801 -958.42902
7.07657 3.25723 -958.55402
10.7288 3.1040201 -958.23798
13.4339 3.0093801 -958.17401
14.4478 2.9614401 -958.28198
16.7945 2.84479 -958.48499
19.0154 2.7927301 -958.83301
21.924 2.70368 -959.46503
24.3524 2.6108899 -960.09698
-28.1525 5.7495599 -983.60199
-24.623899 5.4518099 -977.05701
-24.283001 5.4251199 -976.50403
-23.8592 5.42629 -975.90698
-20.419201 5.1645899 -971.38397
-20.0047 5.1234002 -971.05902
-19.534 5.1222801 -970.59399
-16.3894 4.9140401 -967.70898
-15.9776 4.8898902 -967.40601
-15.508 4.86727 -967.11298
-10.4209 4.5885601 -963.48401
-9.9153996 4.5594201 -963.33698
-3.0002201 4.2280898 -960.63898
0.39742199 4.0837302 -959.50702
2.4818201 3.97945 -959.04303
3.90448 3.90242 -958.86798
7.0722399 3.79739 -958.39899
15.6268 3.45419 -958.26501
