# .PCD v0.7 - Point Cloud Data file format
VERSION 0.7
FIELDS x y z
SIZE 4 4 4
TYPE F F F
COUNT 1 1 1
WIDTH 1599
HEIGHT 1
VIEWPOINT 0 0 0 1 0 0 0
POINTS 1599
DATA ascii
1.79956 -66.186699 -975.60199
3.41168 -66.262703 -975.35699
12.3299 -66.865196 -975.58801
-22.9359 -65.150597 -990.09802
-18.959999 -65.092003 -985.59998
-18.467899 -65.061501 -985.22198
-18.0583 -65.052803 -984.68701
-16.630199 -65.052498 -983.50201
-8.4166298 -65.202904 -978.51801
-7.9091201 -65.218697 -978.28699
-6.9185801 -65.260101 -977.80298
-4.4514198 -65.333099 -976.81403
-3.4584401 -65.380898 -976.49597
-2.88416 -65.444397 -976.41199
-21.6082 -64.579803 -988.20801
-17.1182 -64.540802 -983.66998
-14.8738 -64.505302 -981.65302
-14.3503 -64.5653 -981.47101
-11.4588 -64.574997 -979.55701
-9.0059795 -64.658203 -978.40302
-7.5438199 -64.658699 -977.62903
-6.9523301 -64.727898 -977.56
-2.4459801 -64.882103 -975.909
-26.377501 -64.213097 -994.58099
-25.9778 -64.162903 -993.73999
-25.5627 -64.135902 -993.09399
-22.1766 -64.002403 -988.32202
-21.687099 -63.984402 -987.81
-16.636 -63.979599 -983.04901
-13.9206 -63.987999 -980.83899
-4.5444899 -64.249397 -976.28699
-2.5171499 -64.321999 -975.625
2.1818199 -64.539398 -974.646
-22.6364 -63.395401 -988.53802
-19.0674 -63.330101 -984.646
-18.100401 -63.364799 -983.92902
-11.9728 -63.428902 -979.36499
-8.5468102 -63.523998 -977.68201
-7.0577402 -63.540401 -976.94897
-6.6023598 -63.535 -976.63202
-2.9842501 -63.736801 -975.638
-2.4693601 -63.742699 -975.44598
-1.97223 -63.760601 -975.28302
-1.466 -63.756802 -975.06598
2.16992 -63.963699 -974.41803
7.5388799 -64.275597 -973.99103
-15.4168 -62.7514 -981.18903
-14.4545 -62.779598 -980.61902
-4.5737901 -63.054401 -975.80103
1.63342 -63.348 -974.27502
2.1560099 -63.354698 -974.21002
7.52631 -63.688702 -973.76099
8.7307701 -63.7756 -973.84802
9.2171602 -63.812801 -973.74103
13.1719 -64.096802 -974.18799
13.7672 -64.148201 -974.25897
23.4265 -64.977699 -977.10199
-12.0789 -62.2066 -978.75201
-4.6701002 -62.448502 -975.43402
6.9552598 -63.021301 -973.45398
11.3852 -63.284199 -973.56
19.741899 -64.023399 -975.48499
-3.1781001 -61.9277 -974.617
1.49982 -62.157799 -973.52399
13.1166 -62.925598 -973.49597
18.401199 -63.337399 -974.69202
33.0042 -64.877197 -982.479
33.7966 -64.998199 -983.15802
-6.3610201 -61.235199 -975.02899
-3.7807 -61.354698 -974.28003
-2.67627 -61.433601 -974.151
0.83386201 -61.562099 -973.12
7.8626699 -62.0061 -972.57202
11.1969 -62.221901 -972.69897
12.3531 -62.318401 -972.88599
13.4825 -62.3951 -972.987
25.1968 -63.404202 -977.04498
31.424 -64.1026 -980.92603
-8.8077402 -60.705502 -976.09198
-7.3689599 -60.702801 -975.229
-4.4310298 -60.818401 -974.07898
-1.73132 -60.948601 -973.45801
1.8732899 -61.150398 -972.80103
5.5892301 -61.353001 -972.34802
6.1655898 -61.3778 -972.39203
8.4002705 -61.514702 -972.37097
13.4511 -61.884998 -972.737
-18.863199 -59.973801 -982.52899
-18.4154 -59.978401 -982.10999
-17.3983 -59.9832 -981.388
-17.0383 -59.9771 -980.82202
-15.6178 -59.976101 -979.71899
-14.6908 -59.995399 -979.08099
-14.1708 -60.019501 -978.85498
-12.807 -60.047501 -977.72998
-9.8726797 -60.132401 -976.17297
-8.8593798 -60.171001 -975.74701
-8.4245596 -60.1688 -975.44202
7.78088 -60.981701 -972.22198
13.4139 -61.388802 -972.57703
18.0366 -61.7384 -973.427
-23.7852 -59.481499 -987.53003
-22.959999 -59.4627 -986.40698
-21.510799 -59.456001 -985.026
-18.9412 -59.437 -982.18103
-13.77 -59.513699 -978.15002
-23.377501 -58.9282 -986.73297
-22.028999 -58.937 -985.18103
-21.569201 -58.9217 -984.68103
-19.806499 -58.872799 -982.72699
-19.471901 -58.8512 -982.15698
-18.922701 -58.8647 -981.862
-16.5945 -58.909599 -979.81097
-13.8549 -58.964699 -977.82202
-10.5035 -59.046001 -975.85303
-16.616899 -58.338699 -979.57703
-4.3743901 -58.724899 -973.82098
-22.6105 -57.757 -984.89203
-21.734699 -57.752899 -983.80402
-18.9953 -57.748699 -981.29199
-16.6255 -57.781898 -979.46002
-11.8486 -57.878799 -976.56799
-9.4504404 -57.882801 -975.43402
13.4371 -59.186901 -972.34998
-14.2922 -57.2066 -977.92102
-9.4653301 -57.353199 -975.28302
-7.4527001 -57.398701 -974.35797
-6.8674302 -57.440399 -974.26599
-3.9002099 -57.5457 -973.25403
0.81671101 -57.822399 -972.33002
1.9017299 -57.888901 -972.20398
2.4663701 -57.9104 -972.12799
6.6019902 -58.130199 -971.62903
7.30621 -58.195999 -971.836
7.8953199 -58.239201 -971.88
-12.3574 -56.692101 -976.55902
1.3276401 -57.2682 -972.01501
1.85748 -57.291302 -971.94501
2.39642 -57.3018 -971.836
6.6708398 -57.564499 -971.52802
7.8190298 -57.653599 -971.57001
8.2749004 -57.663601 -971.41998
13.3229 -57.9855 -971.76599
25.616899 -58.982399 -975.79401
-3.9988999 -56.433102 -972.73499
-2.8575399 -56.4935 -972.61499
-1.86432 -56.548 -972.22498
2.77826 -56.778 -971.37402
7.1347699 -57.0452 -971.22998
8.3038902 -57.124901 -971.26703
13.2925 -57.436501 -971.52002
18.6831 -57.876801 -972.84497
34.767502 -59.5135 -981.28699
-12.8489 -55.595402 -976.49402
-9.52777 -55.684898 -974.604
-7.9629502 -55.7593 -974.01801
-7.4865699 -55.7677 -973.77301
-7.0407701 -55.772598 -973.414
-3.43469 -55.953701 -972.53003
-2.3905001 -55.994499 -972.20697
0.62744099 -56.122101 -971.47302
2.2934 -56.253201 -971.33301
2.81427 -56.240601 -971.229
5.4486098 -56.411701 -971.00098
6.5784898 -56.465599 -971.01599
7.1024799 -56.521999 -970.953
7.7226601 -56.5481 -971.005
12.7316 -56.8923 -971.30402
13.3505 -56.953899 -971.45099
-14.7912 -55.0453 -977.47198
-12.9548 -55.072601 -976.14398
-11.9634 -55.101299 -975.55298
-10.0749 -55.1731 -974.58002
-4.0109301 -55.396999 -972.37903
-3.4644201 -55.4198 -972.28699
-2.974 -55.4291 -972.09399
-2.3985 -55.478401 -972.03699
0.11969 -55.603901 -971.42102
4.30615 -55.802601 -970.73401
5.42029 -55.889801 -970.78601
-26.668301 -54.5098 -988.44299
-23.640301 -54.450901 -984.797
-22.7139 -54.434299 -983.84802
-19.511 -54.4426 -980.80103
-17.2614 -54.465302 -978.758
-13.9306 -54.556 -976.58002
-12.437 -54.5938 -975.716
-10.6338 -54.6115 -974.46899
-9.0587196 -54.692402 -974.026
-7.0005498 -54.7649 -973.16901
-4.5753798 -54.874401 -972.29901
-3.00366 -54.932098 -971.87799
0.063598603 -55.084099 -971.16901
0.56549102 -55.104599 -971.05298
2.1802399 -55.192001 -970.83197
2.77637 -55.231701 -970.83099
5.9177198 -55.386299 -970.534
-26.1926 -53.952499 -987.89203
-21.849501 -53.883801 -982.591
-21.393101 -53.905102 -982.104
-19.994101 -53.920399 -980.89099
-19.509501 -53.929298 -980.62903
-18.662001 -53.918098 -979.72302
-16.7822 -53.9408 -978.20898
-14.9205 -53.967999 -976.91302
-10.0734 -54.116299 -974.229
-9.5727501 -54.1311 -974.034
2.1392801 -54.6413 -970.617
-27.124201 -53.4109 -988.85999
-24.942699 -53.388699 -985.909
-21.872999 -53.366699 -982.40399
-21.415001 -53.356201 -981.89502
-20.0082 -53.387402 -980.698
-17.3365 -53.394798 -978.28497
-14.9667 -53.439499 -976.57202
-12.0544 -53.5233 -974.81897
-11.0891 -53.547001 -974.284
-9.5700703 -53.605598 -973.78302
-5.6215801 -53.757 -972.14697
0.54247999 -54.061401 -970.68597
-30.0751 -52.983299 -993.164
-28.353901 -52.925499 -990.74103
-27.5098 -52.901001 -989.40997
-21.4084 -52.833199 -981.71198
-19.1828 -52.8223 -979.677
-17.2834 -52.865002 -978.16998
-12.6602 -52.942101 -974.66699
-12.048 -52.993801 -974.53497
-9.1603403 -53.055 -973.12799
-5.1379399 -53.2374 -971.854
-4.6523399 -53.278702 -971.68103
5.7569599 -53.7724 -969.78699
-24.598101 -52.211899 -984.79797
-23.7199 -52.231998 -983.88501
-21.8167 -52.2323 -982.078
-21.4484 -52.228699 -981.45203
-19.249901 -52.2122 -979.341
-16.4694 -52.256901 -976.86401
-13.6311 -52.3274 -975.09302
-12.6936 -52.348202 -974.409
-12.1326 -52.367699 -974.22198
-11.1713 -52.413898 -973.685
-10.7076 -52.4049 -973.45599
-9.1893902 -52.4888 -972.88098
-7.6392798 -52.555302 -972.40198
-6.7290602 -52.5742 -971.948
-2.62024 -52.771999 -970.836
-2.14288 -52.791599 -970.57501
-0.0780029 -52.898399 -970.24298
0.97143602 -52.948898 -970.10602
-15.5839 -51.690399 -975.98102
-14.6083 -51.734798 -975.46899
-12.6697 -51.782101 -974.28998
-8.7282104 -51.928001 -972.42999
-6.6871901 -51.974098 -971.729
-4.6995802 -52.116501 -971.26202
-0.042724598 -52.334702 -970.13501
0.50482202 -52.365002 -970.09601
2.62518 -52.466999 -969.75299
4.6624098 -52.555698 -969.388
6.8308702 -52.692402 -969.362
7.4363399 -52.726002 -969.427
9.9812603 -52.842098 -969.01703
-10.289 -51.254101 -972.80499
-7.2009301 -51.390301 -971.58801
-2.6572299 -51.590801 -970.44897
1.495 -51.805 -969.646
5.6528902 -52.021801 -969.09302
6.1821299 -52.023399 -969.04901
6.8169599 -52.115101 -969.15802
11.2114 -52.362999 -969.21899
18.5728 -52.8605 -969.79999
23.472401 -53.241299 -971.49799
-7.3225098 -50.8288 -971.23901
-4.7705102 -50.9506 -970.75702
-0.128418 -51.1595 -969.68597
0.96185303 -51.248402 -969.57898
6.2199101 -51.499298 -968.93701
6.81464 -51.551701 -968.99597
23.3659 -52.701302 -971.13599
24.7071 -52.815102 -971.69702
-7.39362 -50.282398 -970.95502
-4.7999902 -50.432899 -970.48499
0.383118 -50.704601 -969.45398
0.93762201 -50.718498 -969.39801
1.45441 -50.750599 -969.29199
5.6964102 -50.965599 -968.82599
6.3140302 -51.007702 -968.91199
7.4095502 -51.086201 -968.854
14.2608 -51.4617 -968.505
18.5142 -51.7728 -969.37701
19.1471 -51.821602 -969.599
23.3878 -52.188202 -970.93103
-19.7948 -49.4473 -978.513
-17.016199 -49.507099 -976.20697
-16.1154 -49.512798 -975.58197
-15.1603 -49.539101 -975.01599
-14.6439 -49.563999 -974.80701
-8.3845797 -49.7458 -971.34198
-3.7720301 -49.972698 -970.14301
-3.2745399 -49.990002 -969.96002
-0.72192401 -50.098 -969.29999
0.35363799 -50.164398 -969.24402
0.87170398 -50.208199 -969.12903
2.49664 -50.3009 -968.93597
3.00317 -50.3078 -968.78601
4.5241699 -50.356201 -968.53497
9.9144297 -50.6903 -968.21399
11.0793 -50.762299 -968.49103
-22.533701 -48.9361 -980.867
-21.5569 -48.947899 -979.953
-19.8507 -48.933998 -978.27399
-16.556499 -49.019798 -975.73297
-16.2104 -48.998199 -975.25403
-15.5883 -49.047401 -975.21002
-11.7679 -49.131302 -972.849
-5.89148 -49.3564 -970.16302
-4.8875699 -49.398998 -969.98999
1.3931299 -49.7332 -968.89697
-22.532 -48.4002 -980.69202
-22.0877 -48.374199 -980.22699
-21.6455 -48.399399 -979.68903
-21.197701 -48.395599 -979.19897
-20.7841 -48.3773 -978.784
-20.306 -48.4161 -978.46503
-19.4625 -48.415001 -977.64502
-11.3369 -48.652901 -972.37799
-4.8737202 -48.9203 -969.875
-4.32898 -48.930199 -969.87799
-2.7372401 -48.992699 -969.54797
-2.2832 -49.016499 -969.29901
-0.252197 -49.120899 -968.90601
2.9362199 -49.2644 -968.383
-22.087799 -47.858501 -980.01801
-20.808901 -47.873299 -978.63098
-15.7013 -47.965 -974.70898
-14.2874 -48.0126 -973.78198
-32.492199 -47.573399 -996.49597
-26.529699 -47.322498 -985.12799
-25.597 -47.2934 -984.039
-24.8248 -47.3111 -982.862
-24.407801 -47.272301 -982.302
-23.546301 -47.2794 -981.073
-23.0319 -47.2999 -980.73798
-21.2735 -47.283199 -978.80701
-20.764 -47.3195 -978.534
-16.5916 -47.423302 -975.22198
-11.8491 -47.5504 -972.24902
-6.0146499 -47.7514 -969.521
-2.83044 -47.924 -969.13202
5.4528799 -48.3344 -967.73401
-22.137501 -46.743301 -979.65698
-21.323799 -46.721298 -978.54401
-19.983801 -46.751598 -977.44202
-17.9464 -46.8335 -976.22302
-17.1122 -46.817699 -975.33899
-16.2101 -46.846199 -974.63397
-15.8729 -46.814098 -974.08197
-13.3036 -46.937801 -973.01001
-12.3145 -46.965099 -972.41803
-8.9923697 -47.065601 -970.66803
-7.45996 -47.1049 -970.01599
-3.9389 -47.291901 -969.13098
-2.8579099 -47.358601 -968.91101
7.5893602 -47.902599 -967.37598
-18.0026 -46.2234 -976.01099
-17.589199 -46.244801 -975.51703
-16.6653 -46.250702 -974.776
-7.42487 -46.5466 -969.84698
5.9531298 -47.2528 -967.30701
8.6065102 -47.367599 -966.995
18.877399 -48.015999 -968.27899
-19.462 -45.623798 -976.84998
-3.95929 -46.141602 -968.81403
-2.8740799 -46.172298 -968.54199
2.3352699 -46.462502 -967.59302
2.8231201 -46.470402 -967.41199
3.3320899 -46.510899 -967.32501
7.0219102 -46.7174 -967.052
25.046101 -47.927502 -970.198
-10.5037 -45.3311 -970.81702
-7.9663701 -45.424 -969.74799
-2.91852 -45.643799 -968.35999
-1.04816 -45.6992 -967.56598
1.28046 -45.877602 -967.638
8.1571703 -46.2346 -966.88702
13.5159 -46.5233 -966.54401
16.971701 -46.766701 -967.12201
23.7332 -47.298801 -969.44397
-11.0062 -44.774601 -970.83301
-9.5103798 -44.859402 -970.27002
-5.0686002 -45.0173 -968.67798
-4.00281 -45.091999 -968.44
1.2590899 -45.323502 -967.414
5.46246 -45.585098 -966.95801
8.5322304 -45.687599 -966.26099
12.8922 -45.969898 -966.245
16.3013 -46.2272 -966.64301
17.5993 -46.330299 -967.18701
29.3661 -47.2164 -971.76398
-20.4636 -44.004398 -976.65002
-15.3093 -44.118401 -973.20801
-12.9326 -44.198898 -971.73401
-6.4946899 -44.4729 -969.03998
-6.0033598 -44.476398 -968.896
-5.0875201 -44.510899 -968.50299
-3.50507 -44.5924 -968.11499
-2.90552 -44.636799 -968.09003
-2.53302 -44.623699 -967.70001
-1.04968 -44.691799 -967.27399
-0.0108032 -44.707001 -967.01703
10.6389 -45.314499 -966.02502
16.783899 -45.739101 -966.52399
17.4886 -45.767399 -966.81598
24.24 -46.2892 -969.21002
-21.882 -43.487701 -977.81299
-21.038799 -43.474998 -976.75897
-19.9615 -43.5453 -976.26801
-17.084 -43.612801 -974.45203
-15.3257 -43.644402 -973.05902
-12.4316 -43.746201 -971.29401
-11.0229 -43.777199 -970.49701
-10.5325 -43.807201 -970.33197
-3.50842 -44.0909 -967.96198
-1.96259 -44.172798 -967.53003
1.51697 -44.343601 -966.31598
11.1086 -44.862701 -965.70203
16.747999 -45.211399 -966.31
-24.8906 -42.943699 -981.46301
-24.0394 -42.944901 -980.49799
-17.6994 -43.044899 -974.47699
-16.2563 -43.080601 -973.54602
-12.4305 -43.2211 -971.16998
-11.0025 -43.267799 -970.41998
-10.0688 -43.325001 -969.974
-9.6531401 -43.3041 -969.60498
-6.62885 -43.4375 -968.58301
3.5608499 -43.910099 -965.69897
-28.733299 -42.416302 -986.51001
-26.647499 -42.408401 -983.38202
-25.759701 -42.397499 -982.29602
-24.488199 -42.407398 -980.83502
-16.3752 -42.553902 -973.203
-15.8646 -42.580299 -972.96503
-15.3693 -42.599899 -972.75098
-14.9161 -42.589199 -972.44397
-13.9196 -42.657001 -971.87201
-12.4834 -42.68 -970.96399
-12.0562 -42.709499 -970.625
-10.6051 -42.793598 -969.992
-7.0760498 -42.890202 -968.67798
-5.52777 -42.989601 -968.336
-25.746201 -41.848801 -982.14801
-23.600901 -41.870201 -979.73199
-17.744101 -41.992199 -974.07599
-17.3339 -41.9823 -973.60101
-16.870701 -41.997799 -973.258
-16.3316 -42.0387 -973.09698
-15.3737 -42.0364 -972.59998
-12.5105 -42.170799 -970.78601
-8.9675303 -42.2976 -969.48798
-7.6392798 -42.325401 -968.63397
-26.174601 -41.281898 -982.54999
-21.731199 -41.312698 -977.742
-20.896601 -41.3484 -976.80402
-17.276199 -41.4128 -973.53802
-16.813801 -41.432301 -973.19501
-15.4877 -41.478901 -972.24701
-12.1194 -41.571098 -970.367
-5.1157799 -41.867901 -967.78998
-4.09619 -41.939499 -967.48401
0.35913101 -42.132198 -965.74402
-16.312599 -40.885201 -972.81097
-12.5369 -40.990398 -970.56702
-12.0684 -40.980099 -970.29199
-10.0292 -41.0714 -969.63501
-8.5233803 -41.166302 -969.02197
-5.6458702 -41.287701 -967.73901
2.92944 -41.653198 -965.078
4.5209398 -41.757599 -964.98602
10.4742 -42.1068 -964.90601
29.677 -43.4454 -970.39502
-12.0379 -40.418098 -970.20898
-7.63837 -40.590199 -968.21301
-5.6381202 -40.698799 -967.59698
-4.0802598 -40.783501 -967.18402
-0.79986602 -40.882 -965.42102
8.2175903 -41.374802 -964.453
9.3617601 -41.456501 -964.56598
12.7862 -41.658401 -964.93103
13.2703 -41.677399 -964.84198
18.2945 -42.015598 -965.216
29.694799 -42.8596 -970.18402
-6.1535602 -40.167301 -967.59601
-5.1601601 -40.193901 -967.31097
1.91699 -40.510899 -964.99298
4.5297198 -40.635201 -964.745
6.22681 -40.747101 -964.763
9.7927198 -40.942101 -964.34003
11.0295 -41.008499 -964.56299
11.5211 -41.032101 -964.508
13.2514 -41.1376 -964.70697
13.765 -41.168098 -964.69897
18.8354 -41.490299 -965.13098
-7.10254 -39.606098 -967.82202
-2.8017001 -39.740101 -965.63599
-1.2745399 -39.827801 -965.284
0.218628 -39.9091 -964.99799
1.89331 -39.993401 -964.84003
8.1862202 -40.297298 -964.21399
9.2453604 -40.3904 -964.19501
11.4651 -40.500702 -964.32501
16.007401 -40.819599 -964.98401
20.6332 -41.085701 -965.56403
21.981701 -41.2108 -966.466
-24.506599 -38.564701 -979.76099
-21.3804 -38.598 -976.44598
-17.2038 -38.732399 -973.133
-16.771999 -38.717899 -972.73401
-15.8582 -38.7444 -972.15002
-12.9944 -38.8829 -970.45398
-12.5015 -38.861099 -970.12402
-10.1422 -38.980598 -968.935
-8.1350698 -39.062901 -968.078
-7.6332402 -39.0658 -967.83698
-0.87432897 -39.338699 -964.95697
-0.26568601 -39.390099 -965.00201
1.34534 -39.470299 -964.79199
3.94696 -39.604599 -964.38898
7.1438599 -39.759998 -964.17499
7.7390099 -39.786999 -964.18298
8.1782198 -39.7878 -964.02197
11.5446 -40.0443 -964.36401
13.2032 -40.1488 -964.414
24.4877 -40.875099 -967.37201
-17.233 -38.210098 -972.96002
-16.7691 -38.2346 -972.64502
-15.3904 -38.274799 -971.771
-11.1584 -38.437099 -969.16101
-10.6529 -38.439301 -969.00299
-9.13239 -38.544201 -968.41602
-7.7376099 -38.546001 -967.56299
-7.1934199 -38.581299 -967.42401
-2.836 -38.739601 -965.34302
-1.40912 -38.823299 -964.90698
2.3487501 -39.019299 -964.37799
4.9008799 -39.160198 -964.10699
6.5801401 -39.2402 -964.06299
-23.608 -37.567299 -978.59399
-22.327101 -37.5928 -977.06097
-21.850401 -37.571999 -976.59302
-20.9048 -37.6199 -975.83002
-17.6887 -37.682098 -973.15601
-17.2022 -37.709801 -972.87701
-16.764799 -37.736599 -972.51001
-15.8059 -37.754398 -971.96899
-15.4784 -37.739899 -971.526
-11.5476 -37.9035 -969.38098
-7.6792598 -38.0481 -967.53699
-7.23419 -38.0583 -967.237
-2.3557701 -38.2826 -965.026
-32.59 -37.021301 -990.75403
-25.8897 -36.978901 -980.659
-24.9436 -37.001202 -979.79303
-20.914 -37.106098 -975.70898
-19.200399 -37.115799 -973.97101
-17.298401 -37.174999 -972.604
-16.3619 -37.186901 -972.00403
-12.609 -37.297199 -969.591
-11.6199 -37.3578 -969.12402
-8.1834698 -37.527901 -967.62903
-0.822815 -37.8241 -964.67401
-28.837299 -36.4072 -984.81097
-24.943399 -36.441399 -979.69202
-21.360901 -36.5233 -975.948
-17.2883 -36.627499 -972.48297
-16.361 -36.663799 -971.888
-15.851 -36.694 -971.65302
-15.4325 -36.721901 -971.34198
-7.7352901 -37.0172 -967.20398
-7.2077599 -37.0294 -967.04602
-30.054701 -35.8507 -986.55902
-21.8465 -35.965801 -976.23297
-21.4205 -35.9529 -975.73798
-17.279699 -36.084301 -972.34698
-16.802099 -36.087502 -972.06201
-15.8605 -36.138802 -971.51501
-12.173 -36.216801 -968.99298
-11.1895 -36.282001 -968.59802
-10.6146 -36.326801 -968.56097
-8.1793804 -36.4366 -967.41101
-0.75353998 -36.7439 -964.54401
2.2609899 -36.877998 -963.789
-11.6287 -35.723202 -968.72998
-11.0997 -35.764198 -968.59497
-7.7019701 -35.899799 -966.99902
-7.2396202 -35.874901 -966.71997
-6.8068199 -35.905701 -966.46301
-3.4043 -36.008999 -964.76099
-2.92554 -36.0411 -964.55798
-0.79266399 -36.187698 -964.37201
-0.339661 -36.1717 -964.177
0.80395502 -36.259201 -964.12701
3.7773399 -36.3964 -963.401
4.4031401 -36.4291 -963.57098
7.1431298 -36.613098 -963.63202
9.2202797 -36.708599 -963.56097
10.3968 -36.794498 -963.72498
10.9268 -36.808701 -963.69397
15.9219 -37.105801 -964.08502
22.391701 -37.5368 -965.60797
23.054899 -37.577702 -965.88202
-3.32886 -35.499298 -964.76001
-2.40363 -35.497501 -964.30701
-0.84460402 -35.5812 -964.13702
0.77050799 -35.6852 -963.92499
2.68927 -35.778198 -963.29602
3.29199 -35.803101 -963.36902
4.90729 -35.8862 -963.45801
5.4802899 -35.908901 -963.51801
6.0984502 -35.979099 -963.62799
7.2020898 -36.053101 -963.64398
7.6726098 -36.0728 -963.539
10.2575 -36.175499 -963.34198
12.016 -36.299301 -963.521
12.6138 -36.337002 -963.59198
23.0541 -37.006302 -965.73602
-2.9153399 -34.952702 -964.33197
-1.86426 -35.008999 -964.13
-0.81310999 -35.073799 -964.07397
2.24841 -35.222401 -963.40198
4.9349399 -35.362598 -963.453
9.1881104 -35.5816 -963.15198
11.447 -35.731998 -963.38
11.994 -35.766399 -963.35101
22.420601 -36.404999 -965.34399
23.6136 -36.4939 -965.71198
-12.9911 -34.062901 -969.32599
-11.6384 -34.060398 -968.375
-11.169 -34.117001 -968.14398
-4.4509301 -34.386902 -964.73999
-3.3996 -34.4272 -964.43402
-2.9035599 -34.445499 -964.229
0.155884 -34.616798 -963.73199
2.3391099 -34.719299 -963.49402
9.2424898 -35.085602 -963.09399
10.8105 -35.175701 -963.10901
11.3777 -35.215698 -963.15002
22.3071 -35.866798 -965.05798
27.2668 -36.203499 -966.96503
37.624199 -36.991699 -973.263
-15.4578 -33.446201 -970.55701
-12.2099 -33.5564 -968.34497
-11.0789 -33.625099 -968.151
-7.7982202 -33.745998 -966.36798
9.1950703 -34.5914 -962.92603
9.78827 -34.641899 -963.04401
10.2733 -34.680801 -962.98602
12.483 -34.768398 -963.04498
15.2566 -34.9538 -963.31201
-26.7131 -32.668598 -980.862
-26.285 -32.6539 -980.23798
-25.9006 -32.668701 -979.65002
-14.0281 -33.002998 -969.60797
-13.5546 -33.0168 -969.24701
-11.6091 -33.095798 -968.15997
-10.7068 -33.166698 -967.70801
-8.1981201 -33.2467 -966.64203
-7.2627001 -33.2854 -966.12097
-3.3857999 -33.459599 -964.26501
-25.8542 -32.128101 -979.565
-20.943899 -32.2687 -974.55701
-20.566 -32.244801 -974.04797
-20.0909 -32.312302 -973.76801
-17.771799 -32.3382 -971.77301
-17.292801 -32.371899 -971.52899
-16.5009 -32.372101 -970.70599
-12.6407 -32.558701 -968.461
-12.1707 -32.551102 -968.164
-11.728 -32.5783 -967.89697
-7.77948 -32.755798 -966.17297
-2.9535501 -32.940399 -963.89502
-28.314501 -31.5979 -983.091
-17.2623 -31.865801 -971.44598
-16.8806 -31.886499 -971.03198
-15.9449 -31.905701 -970.43298
-12.5374 -32.058998 -968.505
-10.7487 -32.106201 -967.40802
-7.7731299 -32.236 -966.07501
3.2802701 -32.740101 -962.888
-26.334299 -31.056499 -979.81702
-17.334499 -31.317801 -971.22198
-16.839399 -31.3414 -970.966
-16.437201 -31.341499 -970.57098
-15.9551 -31.365101 -970.30499
-11.1558 -31.576099 -967.59601
-7.35919 -31.7297 -965.65698
-21.509501 -30.6085 -974.39203
-20.552601 -30.651699 -973.74103
-16.389 -30.7812 -970.53998
-13.1112 -30.923201 -968.461
-11.6772 -30.961399 -967.61902
-7.34167 -31.1509 -965.52698
1.73785 -31.584101 -962.90399
3.8064001 -31.6728 -962.617
4.2802701 -31.704599 -962.50598
-17.748501 -30.1712 -971.33899
-15.9169 -30.247601 -970.14697
-12.6276 -30.375799 -968.02197
-11.6284 -30.423401 -967.59497
-7.2392001 -30.6143 -965.56201
-6.2701998 -30.642799 -965.224
-2.5139201 -30.7659 -963.35602
-0.358215 -30.9223 -963.18103
0.775208 -30.9981 -963.09198
4.28229 -31.1663 -962.40503
4.7852802 -31.1695 -962.33301
6.4504399 -31.283899 -962.258
7.5185499 -31.3158 -962.12799
11.8646 -31.5711 -962.216
15.1739 -31.7428 -962.435
15.7822 -31.786501 -962.59998
18.063299 -31.903999 -962.95697
-2.86993 -30.229401 -963.56799
-2.4151599 -30.2089 -963.35699
-0.94409198 -30.318199 -963.02002
-0.36175501 -30.3435 -963.02802
0.757263 -30.4084 -962.948
4.2637901 -30.5921 -962.24402
4.78583 -30.605301 -962.20203
5.3534498 -30.6231 -962.21301
7.0451698 -30.7279 -962.17603
7.5353999 -30.746 -962.06
8.07477 -30.7731 -962.03998
11.3257 -30.9499 -962.10101
12.4665 -31.020901 -962.20099
15.8076 -31.210699 -962.52301
22.249599 -31.606501 -963.96503
24.0569 -31.726801 -964.534
27.7248 -31.962601 -965.88501
-6.89081 -29.491501 -964.95599
-6.38586 -29.5137 -964.83801
-3.35815 -29.667601 -963.70502
-1.86725 -29.7348 -963.19098
0.68994099 -29.875799 -962.73297
3.78265 -30.031601 -962.229
9.6517897 -30.330299 -961.90198
10.1179 -30.3328 -961.81598
14.6163 -30.599199 -962.112
16.2647 -30.710501 -962.33197
18.0322 -30.8218 -962.66101
21.5065 -31.010099 -963.45898
22.820101 -31.112101 -964.008
23.370399 -31.113899 -964.09802
28.9601 -31.510401 -966.30402
-12.1821 -28.763399 -967.36902
-2.9450099 -29.1821 -963.26099
-1.86938 -29.243401 -963.04199
-1.367 -29.267401 -962.97998
10.1273 -29.8445 -961.69897
10.6828 -29.8573 -961.724
11.3116 -29.913799 -961.87402
16.235399 -30.200001 -962.18103
18.5963 -30.3225 -962.573
22.169701 -30.5704 -963.625
22.702499 -30.5737 -963.71198
28.402 -30.9328 -966.04199
-16.4727 -28.0751 -969.84003
-11.6601 -28.2824 -967.10797
-5.39185 -28.5791 -964.36902
-3.34149 -28.679501 -963.56
3.26178 -28.983801 -962.03699
5.3313599 -29.093399 -961.84802
11.2909 -29.4389 -961.71198
12.9126 -29.4942 -961.72198
15.7113 -29.672001 -962.047
16.275101 -29.6929 -962.13397
18.0931 -29.8153 -962.51801
-20.5963 -27.448601 -973.03601
-16.944 -27.587 -970.06403
-16.4037 -27.6175 -969.84497
-11.7328 -27.801001 -966.914
-11.1414 -27.8428 -966.85901
-10.7303 -27.875999 -966.591
4.34271 -28.580799 -961.92401
-21.9191 -26.8964 -974.17999
-21.3822 -26.927799 -973.862
-21.0012 -26.9375 -973.39398
-17.777901 -27.0776 -970.664
-16.430401 -27.086 -969.70697
-15.9365 -27.133699 -969.48999
-11.7112 -27.2806 -966.849
-11.1819 -27.3234 -966.69397
-7.3141499 -27.501699 -964.84302
-29.983999 -26.176901 -984.55298
-25.849199 -26.2712 -978.34399
-23.1556 -26.3531 -975.66699
-21.376499 -26.4125 -973.76703
-16.4652 -26.592899 -969.57098
-9.2271099 -26.8976 -965.78699
-21.432699 -25.8727 -973.58502
-21.032101 -25.888399 -973.159
-20.448999 -25.916201 -972.97101
-16.402201 -26.0632 -969.578
-15.9407 -26.083 -969.27301
-11.7769 -26.243099 -966.57001
-11.1888 -26.273199 -966.50702
-10.7127 -26.3279 -966.33301
-16.9363 -25.4646 -969.66101
-15.9675 -25.5103 -969.14301
-12.1442 -25.672001 -966.85797
-11.6194 -25.700001 -966.72803
-2.79199 -26.103201 -963.13098
3.1857901 -26.3906 -961.375
-11.6909 -25.1339 -966.48798
-11.1858 -25.1609 -966.29999
-7.7764301 -25.295 -964.69702
-6.8123202 -25.3575 -964.28601
-5.8187299 -25.421101 -964.008
-2.3270299 -25.566601 -962.79498
15.0546 -26.457399 -961.19098
-13.0141 -24.5077 -967.37402
-11.7354 -24.5711 -966.32001
-7.2943702 -24.745199 -964.40002
-2.8314199 -24.9527 -962.84198
-2.36499 -24.986099 -962.64899
-0.33337399 -25.085699 -962.31799
3.6771901 -25.263201 -961.31097
7.5065298 -25.496401 -960.97699
7.9461699 -25.4993 -960.78003
8.9848604 -25.544701 -960.73798
10.1688 -25.6385 -960.92297
11.2411 -25.678301 -960.92102
12.3348 -25.7367 -960.93701
14.4847 -25.858101 -960.95099
15.6633 -25.9291 -961.211
17.993799 -26.055401 -961.63898
18.490101 -26.0756 -961.64899
22.056801 -26.2852 -962.64203
-11.676 -24.0522 -966.32599
-2.7929699 -24.444 -962.80499
-0.84442103 -24.5422 -962.29401
2.2468901 -24.666201 -961.65302
10.7125 -25.135201 -960.82898
15.6451 -25.3834 -961.099
17.412901 -25.5103 -961.461
17.944099 -25.5077 -961.48401
18.504601 -25.5266 -961.54797
23.796301 -25.828899 -962.70001
28.770201 -26.159901 -964.68799
-11.6878 -23.5117 -966.19299
-7.80194 -23.7192 -964.367
-1.8101799 -23.983801 -962.43799
-0.79266399 -24.0289 -962.26703
0.81231701 -24.142799 -962.07098
9.5351 -24.551201 -960.58197
10.0933 -24.5835 -960.61798
10.6721 -24.6133 -960.66901
11.2607 -24.647499 -960.758
12.2568 -24.6908 -960.59302
12.8113 -24.729601 -960.59998
16.8074 -24.9625 -961.25403
23.141701 -25.2896 -962.401
-20.962601 -22.6451 -972.66199
-15.8974 -22.8521 -968.73499
-15.3953 -22.8974 -968.56598
-12.1165 -23.013201 -966.40399
-11.6432 -23.0326 -966.159
-7.7706299 -23.2279 -964.33502
-7.2718501 -23.2342 -964.14203
-6.7490802 -23.286699 -964.026
-5.9245 -23.288 -963.492
-2.3319099 -23.4907 -962.42798
0.80877697 -23.641199 -961.98798
1.2854 -23.649799 -961.79498
2.20258 -23.6826 -961.39301
7.5191002 -23.934799 -960.92499
-20.0509 -22.2096 -971.91199
-17.7985 -22.306499 -969.80499
-13.0702 -22.492599 -966.90997
-12.19 -22.5084 -966.23102
-11.6737 -22.563601 -966.021
-11.2465 -22.579 -965.74701
-10.7274 -22.590401 -965.63397
-7.7935801 -22.733801 -964.22101
-5.8123798 -22.808599 -963.55798
-2.3224499 -22.9939 -962.34998
-1.36493 -23.049 -962.08099
-0.83679199 -23.076599 -962.06299
2.2235701 -23.203899 -961.33801
-20.473101 -21.6649 -972.19397
-17.3022 -21.796499 -969.35999
-11.1948 -22.0578 -965.73999
-7.7497602 -22.2293 -964.20898
-7.3212299 -22.2288 -963.87903
-6.3732901 -22.274099 -963.50897
-25.796 -20.936399 -977.55103
-24.861601 -20.995899 -976.68701
-20.928699 -21.1439 -972.47803
-20.455299 -21.154699 -972.12701
-17.2731 -21.2994 -969.28198
-11.6588 -21.5296 -965.86902
-10.6956 -21.587601 -965.487
-7.8043199 -21.695299 -964.05798
-2.3283701 -21.9634 -962.05701
-29.948 -20.2535 -983.586
-24.961399 -20.4452 -976.466
-21.431 -20.5783 -972.68103
-20.8825 -20.615299 -972.46002
-11.1888 -21.041901 -965.59497
-7.3750601 -21.2041 -963.65601
-6.8091998 -21.2295 -963.56403
-20.493099 -20.056499 -971.89697
-17.2833 -20.2069 -969.11102
-16.8237 -20.180799 -968.771
-16.4118 -20.217699 -968.46399
-12.1853 -20.396799 -965.84601
-11.2242 -20.4557 -965.435
-6.8125 -20.6646 -963.46802
1.77142 -21.070601 -961.099
-17.3295 -19.603701 -968.93298
-16.270599 -19.693701 -968.57397
-12.6321 -19.844801 -966.11499
-12.046 -19.8603 -966.01001
-7.7831998 -20.060101 -963.78497
-7.3217802 -20.0821 -963.52698
-2.93958 -20.2803 -961.66199
2.1853001 -20.564301 -960.59802
7.5051298 -20.826599 -960.36298
-16.7859 -19.108801 -968.63202
-0.36425799 -19.8533 -961.11298
1.70526 -19.9529 -960.651
2.27179 -20.0014 -960.59399
3.6773701 -20.054001 -960.17798
4.8159199 -20.112499 -960.29401
7.58777 -20.2694 -960.383
11.8976 -20.4494 -960.39697
12.9005 -20.5196 -960.25201
15.7191 -20.658701 -960.66498
16.2698 -20.7157 -960.72198
20.628099 -20.944799 -960.77399
21.250999 -20.952801 -960.96503
23.543301 -21.072901 -961.35699
29.8692 -21.444201 -963.90802
7.1265302 -19.707001 -960.45398
8.5490103 -19.7652 -960.086
9.1497202 -19.789801 -960.19501
11.8429 -19.934401 -960.23798
12.4792 -19.983101 -960.367
15.7851 -20.1534 -960.646
21.9198 -20.4594 -961.10999
28.5646 -20.8074 -963.32898
-12.0211 -18.2693 -965.789
-2.86432 -18.6868 -961.56097
0.79247999 -18.9142 -960.89801
11.2697 -19.4069 -960.11298
12.9834 -19.4963 -960.19897
21.228901 -19.9156 -960.78101
23.080299 -20.002001 -961.38501
29.8391 -20.354401 -963.78998
-25.6401 -17.1719 -977.21899
-25.2104 -17.182301 -976.72101
-20.875999 -17.3594 -971.97198
-15.9082 -17.5998 -967.763
-11.12 -17.798901 -965.16498
-8.3613901 -17.928699 -963.30298
-2.86731 -18.1819 -961.49902
2.1057701 -18.447599 -960.138
12.4344 -18.974199 -960.11902
12.9431 -18.980499 -960.03601
21.2096 -19.407101 -960.69702
-25.1833 -16.7006 -976.68701
-20.403099 -16.9139 -971.56403
-12.4965 -17.2665 -965.93103
-8.29883 -17.489799 -963.27698
-7.8548598 -17.4886 -962.98102
12.3904 -18.4785 -959.97601
-20.815399 -16.3885 -971.91199
-20.3606 -16.3936 -971.57202
-11.5771 -16.805901 -965.26898
-29.3605 -15.4843 -982.56299
-21.302401 -15.8206 -972.14899
-20.8459 -15.8651 -971.79901
-20.3452 -15.8794 -971.50201
-12.5494 -16.2505 -965.69202
-28.943199 -14.9685 -981.88202
-25.233999 -15.1006 -976.40399
-21.2206 -15.3246 -972.21503
-17.219299 -15.4961 -968.68903
-16.392799 -15.5337 -967.776
-11.5616 -15.7656 -965.14203
-21.250601 -14.7457 -972.14001
-15.9059 -14.9898 -967.341
-6.7792401 -15.4488 -962.50299
-5.8759198 -15.4833 -962.08502
-2.9003899 -15.615 -960.99701
-16.778601 -14.3873 -968.13702
-9.0501699 -14.8107 -963.72302
-3.36255 -15.0453 -961.19098
-2.40381 -15.0959 -960.789
4.2595201 -15.4153 -959.52899
12.9813 -15.8522 -959.604
-2.39465 -14.5177 -960.698
2.2304699 -14.7644 -959.79199
4.74823 -14.8809 -959.33398
6.9486098 -14.9991 -959.24701
12.496 -15.275 -959.61902
15.167 -15.3998 -959.73199
27.3384 -16.0054 -962.23798
28.0278 -16.0441 -962.625
2.21082 -14.2249 -959.68799
7.5056801 -14.4847 -959.091
9.5396099 -14.5821 -958.96802
12.5282 -14.7345 -959.54303
15.1031 -14.8477 -959.56897
15.7486 -14.904 -959.784
16.2764 -14.9126 -959.78198
17.999201 -14.9877 -960.00598
20.949499 -15.1348 -960.76001
23.2362 -15.272 -961.20502
30.505899 -15.6131 -963.44501
0.86718798 -13.6724 -960.27002
2.2803299 -13.7309 -959.70697
2.71942 -13.7437 -959.48999
4.3015099 -13.8139 -959.34698
6.9957299 -13.9672 -959.14203
12.9662 -14.2401 -959.271
17.459101 -14.4733 -959.927
18.026501 -14.5175 -959.99799
18.608601 -14.5143 -960.06299
-21.1572 -12.0872 -971.922
-20.6388 -12.1348 -971.64801
-12.9932 -12.5193 -965.104
-2.82043 -12.9642 -960.776
-0.84930402 -13.069 -960.258
0.83636498 -13.1929 -960.133
1.72614 -13.2208 -959.659
3.62817 -13.2868 -959.10199
7.9974999 -13.5295 -958.88501
21.507 -14.1703 -960.72699
-25.071501 -11.4024 -976.26001
-12.572 -12.0332 -964.65503
7.4312701 -13.0282 -958.815
14.5198 -13.3445 -959.10602
-24.6639 -10.9369 -975.67999
-23.759899 -10.9619 -974.771
-7.2571402 -11.7589 -962.27002
-2.7843599 -12.0073 -960.69299
-21.1145 -10.5699 -971.51398
-8.1357403 -11.2406 -962.82098
-1.77551 -11.5502 -960.33002
-21.2766 -10.0558 -971.04602
-20.795601 -10.0738 -970.70398
-7.6332402 -10.7348 -962.513
-25.864401 -9.2129402 -976.96002
-20.785999 -9.5016203 -970.60498
-20.3517 -9.53971 -970.20697
-16.1978 -9.74506 -966.93701
-8.0799599 -10.1795 -962.677
-6.6524701 -10.2277 -961.979
2.76282 -10.687 -959.11603
-20.357201 -8.9675798 -970.13
-17.184299 -9.1589499 -967.48602
-16.2129 -9.1654902 -966.90399
-2.70081 -9.8824196 -960.53497
-0.740417 -9.9765997 -960.00098
2.8340499 -10.1174 -959.14203
3.78583 -10.1907 -958.91602
18.1108 -10.869 -959.617
-8.9887104 -8.9836597 -963.20898
6.49719 -9.7566605 -958.729
8.5473003 -9.8445997 -958.42902
12.3224 -10.0322 -958.41803
16.352501 -10.2115 -959.26801
17.524799 -10.28 -959.46802
18.171301 -10.3177 -959.633
20.937 -10.4241 -960.08502
-0.57318097 -8.9086599 -960.15002
4.4414101 -9.1333199 -958.96997
14.6683 -9.6192198 -958.776
15.2318 -9.6436195 -958.99902
16.4044 -9.6926603 -959.25702
23.454201 -10.0105 -960.862
34.601002 -10.4977 -965.31299
-11.3515 -7.83004 -964.25403
9.7215595 -8.8764801 -958.48401
10.1545 -8.8921099 -958.33698
12.8663 -9.0263596 -958.29102
13.4946 -9.0446997 -958.39301
15.2251 -9.1275797 -958.94897
16.3533 -9.1997099 -959.14203
16.961399 -9.2165003 -959.284
17.538601 -9.2376299 -959.36102
21.645901 -9.44349 -960.27197
22.1863 -9.4780302 -960.39203
23.375099 -9.5348997 -960.70599
24.0259 -9.5471001 -960.927
30.245399 -9.8044996 -963.40399
34.659401 -10.0072 -965.32599
-20.696501 -6.8365102 -970.75702
-13.6376 -7.2644401 -965.75403
-1.2809401 -7.8605299 -959.79199
1.8595001 -8.0227699 -959.258
12.4449 -8.5218201 -958.435
-16.6154 -6.5987501 -967.15198
-15.2273 -6.6733098 -966.27301
-13.6599 -6.7438998 -965.69897
-5.1487999 -7.1727901 -961.21503
-0.64544702 -7.4324598 -959.823
2.85535 -7.5759001 -958.90002
-28.9342 -5.3407102 -982.42297
-6.6592999 -6.6265001 -961.57001
-21.000099 -5.31881 -971.28003
-16.102501 -5.0759401 -966.97498
-12.3165 -5.2541499 -964.521
-5.64746 -5.6045499 -961.21899
-20.9531 -4.2210202 -971.23999
-16.425699 -4.4795198 -967.41803
-15.5768 -4.5363798 -966.69501
-12.2905 -4.6825099 -964.51099
-7.42383 -4.9830899 -962.22101
3.46594 -5.5194502 -958.73102
-11.3641 -4.2122402 -963.86401
-6.5134301 -4.4758601 -961.60101
-5.5639 -4.5169101 -961.21899
8.1593599 -5.19524 -958.19598
18.2101 -5.65412 -959.13397
-11.3155 -3.6459 -963.86298
0.143188 -4.2246399 -959.14203
3.95856 -4.4074602 -958.63
5.05756 -4.4853702 -958.59601
7.77496 -4.6139798 -958.49902
9.9275503 -4.7330098 -958.46399
10.3926 -4.72822 -958.40997
15.325 -4.9524298 -958.664
16.4177 -4.9931002 -958.74597
18.1772 -5.05618 -959.047
22.228001 -5.25881 -959.97198
23.5399 -5.29915 -960.44299
24.0564 -5.3424602 -960.492
28.8818 -5.53477 -962.10101
-2.60724 -3.56163 -959.96698
11.6801 -4.2417498 -958.68298
13.0961 -4.2957602 -958.31299
13.6977 -4.3281999 -958.42102
15.4025 -4.4029102 -958.70898
17.0375 -4.4953198 -958.85999
18.243299 -4.5355301 -959.091
19.9212 -4.6073098 -959.30499
22.278601 -4.7284598 -959.98901
22.837 -4.7423201 -960.08801
23.4359 -4.76476 -960.24298
28.388399 -4.9683499 -962.09198
43.763802 -5.4960299 -972.26801
1.2090501 -3.2887001 -959.72498
10.4189 -3.67137 -958.40002
12.6187 -3.7916999 -958.39301
13.2426 -3.8318601 -958.492
15.9594 -3.9447601 -958.72302
16.459999 -3.9596901 -958.70898
17.0488 -3.9944301 -958.81403
18.160801 -4.0379901 -958.92401
18.781401 -4.0641098 -959.04401
22.332001 -4.2034998 -960.00897
24.0599 -4.2951999 -960.38
27.7034 -4.42593 -961.70801
-16.3211 -1.82136 -967.302
-15.464 -1.89867 -966.60101
-12.0778 -2.0833499 -964.61102
-7.3140302 -2.3575699 -962.021
-6.9644799 -2.38761 -961.62201
-0.396851 -2.7137499 -959.86499
2.6690099 -2.84847 -959.21802
13.1766 -3.3436601 -958.33002
15.3475 -3.41573 -958.52002
15.9227 -3.4489501 -958.61798
18.243 -3.5606999 -958.98401
22.2801 -3.69962 -959.87402
1.26685 -2.3021901 -959.75
2.1122401 -2.33145 -959.242
10.4766 -2.72597 -958.37799
-25.475201 -0.28150201 -976.95502
-25.032 -0.28031901 -976.39502
-19.9072 -0.61570698 -970.42798
-16.249599 -0.86857599 -967.362
-12.0795 -1.0518399 -964.50702
2.6472199 -1.85943 -959.10101
-24.210501 0.16717499 -975.27698
-20.362101 -0.093208298 -970.78802
-19.855 0.38891599 -970.45502
-10.7296 -0.13105799 -963.54797
-21.1425 1.04905 -971.76501
-20.304899 1.01487 -970.80298
-11.9899 0.47598299 -964.521
-2.29895 -0.049247701 -960.32202
1.3142101 -0.19869199 -959.63202
-12.0418 1.0380599 -964.44
-11.4801 1.00099 -964.29199
3.19958 0.27201101 -958.84302
5.8192101 0.12993599 -958.604
8.9459801 -0.0059509301 -958.203
18.931999 -0.45636001 -958.90802
9.5272198 0.528198 -958.22101
9.98279 0.52565002 -958.14502
13.273 0.37206301 -958.14099
19.512199 0.096229598 -958.97998
21.852699 -0.0093307504 -959.62299
22.4482 -0.030265801 -959.79102
23.6873 -0.075767502 -960.15399
24.239201 -0.076271102 -960.25403
24.8692 -0.102974 -960.44702
29.8311 -0.27349901 -962.513
1.32977 1.4309601 -959.49799
2.26373 1.38554 -959.14099
10.5612 1.01363 -958.16998
13.3273 0.877289 -958.17999
13.8652 0.848961 -958.17499
16.077101 0.768852 -958.453
16.644899 0.74236298 -958.54199
21.8538 0.53015101 -959.57898
23.094 0.512779 -959.97198
28.588499 0.30351999 -961.94202
29.2052 0.262878 -962.21198
2.4154699 1.86954 -959.29797
4.8731699 1.77096 -958.73102
14.9937 1.30595 -958.26801
15.525 1.28 -958.34601
16.122801 1.25571 -958.48999
17.2369 1.22666 -958.61401
18.357201 1.18642 -958.70099
20.635201 1.0758899 -959.12097
28.629999 0.785034 -961.96198
29.2883 0.77543598 -962.28802
37.226299 0.529037 -966.56201
-10.9955 3.08762 -963.86102
-2.6965899 2.6254599 -960.461
-2.19666 2.58916 -960.31598
4.3154898 2.3025401 -958.67603
14.4145 1.81468 -958.14203
22.5522 1.51016 -959.78198
23.753201 1.4526401 -960.12799
29.210501 1.29193 -962.146
-20.5723 4.1712198 -971.35602
-16.5333 3.8986101 -967.69501
-15.6854 3.8415501 -966.90002
-15.1636 3.8122599 -966.67499
-11.4894 3.6084099 -964.04498
-7.1027799 3.3254299 -962.14398
-24.750099 4.9672999 -976.995
-24.2924 4.9829998 -976.25098
-16.496 4.4038301 -967.71899
-15.5735 4.3517799 -967.07599
-10.4967 4.0488 -963.63397
-24.302099 5.4883299 -976.49402
-16.506701 4.9296398 -967.70203
-15.6024 4.8727298 -967.04303
-10.0087 4.5203199 -963.31
-23.7866 5.96735 -976.091
-19.546101 5.6434698 -970.74103
-24.4886 6.6171398 -977.48499
-4.0724502 5.27214 -961.14001
3.39679 4.9073901 -958.76801
-15.4372 6.5181499 -967.38098
-6.4696698 6.0219598 -961.89899
2.97174 5.4626198 -958.97198
3.42975 5.4386001 -958.78003
19.1262 4.7914701 -958.78601
-5.0379 6.4155998 -961.32599
-2.0437 6.2581601 -960.31598
14.0063 5.5428801 -958.021
15.7468 5.4633498 -958.34998
22.0112 5.2371998 -959.46002
24.543501 5.16676 -960.33002
25.0793 5.1391802 -960.39697
30.7472 4.9779501 -962.86603
-0.00128174 6.73067 -959.80402
4.5718398 6.4801602 -958.73401
4.99646 6.4752698 -958.57898
10.8 6.2249599 -958.11102
11.9563 6.1519198 -958.21997
13.5367 6.0992098 -958.10999
14.6942 6.0566201 -958.245
15.285 6.0306501 -958.35199
16.259501 5.9969001 -958.33002
17.499599 5.93223 -958.65503
22.1042 5.7726002 -959.58502
22.753401 5.7575102 -959.78497
27.554899 5.6091399 -961.36298
29.503799 5.5271201 -962.30402
-0.0166016 7.2053199 -959.73401
4.5551801 6.9938402 -958.69098
5.6481299 6.9591498 -958.69299
10.8978 6.6935201 -958.21802
22.025499 6.2959399 -959.40802
23.3613 6.22717 -959.96899
28.210699 6.0876999 -961.67999
-9.6809101 8.2349596 -963.88202
0.482788 7.6834002 -959.599
6.18958 7.4099698 -958.604
15.2985 7.0074501 -958.30499
21.537399 6.78723 -959.36298
-16.0986 9.1593103 -968.46002
1.63574 8.0989199 -959.52002
3.112 8.0246201 -959.01501
-19.638901 9.9174004 -971.86902
-19.2213 9.9050303 -971.39398
-0.87139899 8.7341805 -960.05103
-24.5975 10.882 -978.72699
-19.9368 10.4666 -972.53302
-19.190001 10.4111 -971.44598
-16.014601 10.1632 -968.54102
-14.6811 10.0756 -967.43903
-10.543 9.8072996 -964.47101
0.162292 9.1626997 -959.88397
-20.349701 11.0279 -973.07001
-19.577101 10.9692 -971.95502
-15.1123 10.6062 -967.81799
-10.4284 10.3214 -964.59998
-10.5086 10.9043 -964.45898
-9.4152803 10.806 -964.16699
-2.2554901 10.448 -960.578
0.155334 10.2747 -959.70398
-15.4722 11.7826 -968.28998
-10.3541 11.412 -964.62
3.12708 10.6756 -958.62402
5.164 10.5593 -958.34003
5.6430702 10.5272 -958.22198
18.6887 10.0032 -958.375
-5.6374502 11.6449 -961.75403
2.67627 11.2808 -958.77802
7.79352 11.4971 -957.65503
8.7301598 11.4517 -957.36298
9.3497295 11.4372 -957.414
10.4205 11.3861 -957.45398
13.6964 11.2484 -957.41699
14.0997 11.2145 -957.24799
16.363001 11.1492 -957.56403
16.9464 11.1249 -957.672
20.935699 10.999 -958.28601
-10.4243 13.0108 -964.23401
-1.41882 12.4756 -959.51398
3.02002 12.2175 -958.10699
3.5809901 12.1862 -958.04999
8.2376699 11.9944 -957.32001
10.8556 11.8754 -957.19299
12.9976 11.7819 -957.09302
14.683 11.711 -957.18701
16.3323 11.6526 -957.40698
21.499599 11.4844 -958.31799
22.0399 11.456 -958.42297
23.281401 11.4266 -958.83099
25.122101 11.3694 -959.362
27.482901 11.3031 -960.23401
28.163799 11.2715 -960.62701
-15.0328 13.8423 -967.63898
-10.4456 13.5534 -964.16498
-2.3940401 13.0223 -959.81
-1.45752 12.9661 -959.32397
-0.84942597 12.9361 -959.31702
-0.00250244 12.8628 -958.888
1.57129 12.7928 -958.573
5.0528598 12.6235 -957.64001
8.2396898 12.4738 -957.22498
10.8541 12.3532 -957.07001
13.5502 12.2358 -956.97601
15.715 12.1541 -957.14001
16.841299 12.1269 -957.29901
25.010099 11.884 -959.10303
-15.3857 14.3337 -968.07599
-24.0896 15.7088 -979.909
-18.4674 15.1145 -971.23401
-6.198 14.1938 -961.367
3.5927701 13.662 -957.72998
-5.7403002 14.6422 -961.01501
-15.8349 16.4737 -968.09399
-10.9529 16.081499 -963.78003
-10.3903 16.059 -963.65601
1.73419 15.3232 -958.435
-10.0313 16.5853 -963.17499
4.5693402 15.7608 -957.40002
13.6185 15.3718 -956.78699
15.8572 15.2738 -957.05902
16.3901 15.2731 -957.09998
9.8223305 16.119301 -956.76599
15.8483 15.8713 -957.00299
18.122999 15.7992 -957.30902
19.295099 15.7512 -957.49298
22.180201 15.6608 -958.16699
24.606899 15.5857 -958.86603
28.271999 15.5145 -960.24103
35.570301 15.4296 -964.27502
3.21399 16.9123 -957.83899
4.2536602 16.8668 -957.65601
5.2232699 16.8048 -957.48199
15.9142 16.386801 -957.08099
19.8741 16.261101 -957.55103
21.568199 16.2201 -957.94299
22.157801 16.1777 -958.12097
24.028099 16.1427 -958.70502
34.806999 15.9886 -963.68402
-10.7634 18.226101 -963.96997
-9.8754902 18.1731 -963.36102
1.82166 17.461 -958.42902
4.7272301 17.3297 -957.50897
13.1743 17.003799 -956.84399
13.7631 16.9508 -956.91199
15.8696 16.9013 -956.97101
17.087999 16.8535 -957.245
18.744699 16.799801 -957.39099
21.6082 16.699301 -957.979
23.389299 16.655899 -958.49103
29.5527 16.536501 -960.77502
1.9259599 17.9652 -958.54102
4.70648 17.8426 -957.43799
18.796301 17.2764 -957.44702
-10.2677 19.2052 -963.69897
-9.8082895 19.1626 -963.43201
-9.3801298 19.129101 -963.15503
0.73638898 18.4956 -958.56299
3.26563 18.3741 -957.84003
15.9567 17.8547 -957.04102
-14.3442 20.013901 -966.90503
-10.7247 19.740101 -963.98499
-10.2231 19.701 -963.74701
-6.4624 19.441 -961.62
5.81708 18.7631 -957.38898
-23.568001 21.4457 -978.58398
-18.6658 20.908199 -971.41699
-10.7393 20.242599 -963.95099
-10.2077 20.204399 -963.78003
-14.6613 21.0956 -967.44
-10.6813 20.7759 -964.03497
-10.1135 20.718 -963.90601
-9.2744102 20.6569 -963.27399
-23.0394 22.517 -978.23901
-15.5693 21.721701 -968.24298
-10.6486 21.329901 -964.06
-10.0933 21.2899 -963.89801
-9.7129498 21.255501 -963.51898
-6.79529 21.052999 -961.93103
-18.9811 22.6325 -972.09802
-14.6136 22.2155 -967.487
-10.5996 21.8836 -964.08899
-10.136 21.8507 -963.83899
3.0471201 21.032101 -958.24402
3.4846799 21.007 -958.01001
4.8945899 20.949499 -957.55902
13.9753 20.557501 -956.98401
14.4836 20.5394 -956.94501
16.0811 20.5007 -957.06
-1.00195 21.832001 -959.25702
0.44787601 21.723801 -958.81897
4.8821998 21.528601 -957.50098
14.468 21.1224 -956.88098
16.7201 21.0469 -957.224
17.3193 21.0382 -957.34998
18.972799 20.981701 -957.46899
19.557199 20.973499 -957.55603
20.122801 20.9452 -957.64899
23.0089 20.8804 -958.38501
23.632401 20.896999 -958.586
24.861099 20.832701 -958.97699
25.4781 20.826599 -959.14801
29.827499 20.766001 -960.99103
-5.8357501 22.6628 -961.50702
3.1068101 22.1073 -958.27399
5.5487099 22.025101 -957.63
14.0062 21.672001 -956.94598
14.5319 21.6735 -956.93298
16.1374 21.5993 -957.08698
16.673 21.5821 -957.13202
17.8526 21.563999 -957.33301
18.568899 21.519699 -957.61102
18.987101 21.520901 -957.46399
20.6863 21.4893 -957.70599
22.5217 21.4244 -958.35199
23.077 21.424101 -958.44202
24.311001 21.384701 -958.84003
28.533001 21.3097 -960.34998
29.245899 21.3032 -960.742
30.5229 21.3174 -961.33099
-9.9490995 23.423599 -964.052
3.5053101 22.5905 -957.94
16.2078 22.0804 -957.15198
18.4676 22.018299 -957.44397
23.094101 21.909599 -958.43903
39.6917 21.8932 -967.76801
3.5950899 23.065201 -958.034
5.0760498 23.0215 -957.68201
5.60992 23.0016 -957.64697
14.0805 22.651199 -957.01099
15.6071 22.6012 -956.97101
16.735901 22.557199 -957.14099
17.3242 22.551201 -957.263
19.0243 22.513599 -957.45203
23.0644 22.412201 -958.37201
-19.190599 25.2778 -972.987
-10.4067 24.445 -964.32501
-10.0008 24.421301 -963.94702
-9.4899302 24.910101 -963.71997
-5.73456 24.6131 -961.539
6.15485 23.9505 -957.56598
-9.93396 25.4585 -964.02802
-9.4232798 25.418501 -963.81201
-4.2961998 25.1229 -960.70599
-10.7963 26.032 -964.73102
0.183411 25.287399 -959.06201
-17.7302 27.2815 -971.87
-10.3083 26.5581 -964.401
-4.1954298 26.087299 -961.00098
-10.6095 27.1632 -964.966
-9.8341103 27.0851 -964.13202
-6.0403399 26.807699 -961.84601
2.3371 26.2931 -958.65399
3.2318699 26.2703 -958.20898
13.6293 25.794001 -956.97699
14.7026 25.7691 -956.922
3.21948 26.800699 -958.14203
3.6823699 26.783199 -957.961
11.0296 26.4485 -957.11401
14.2822 26.339701 -957.05499
15.8838 26.2904 -957.12903
16.3381 26.2852 -957.07001
17.007 26.267099 -957.31
18.0578 26.2439 -957.34698
18.6686 26.2167 -957.48297
22.717899 26.1236 -958.34497
23.330601 26.1203 -958.55298
24.531799 26.0877 -958.90198
30.954901 26.037901 -961.784
31.538 26.052299 -962.00403
5.1926298 27.251101 -957.59302
15.3139 26.856899 -956.99902
15.8333 26.8258 -957.01898
16.3946 26.82 -957.12903
17.542101 26.8095 -957.31097
18.0793 26.7929 -957.36102
18.6968 26.752399 -957.479
19.9044 26.7271 -957.71503
20.9723 26.711201 -957.81299
22.1061 26.669399 -958.12097
23.361601 26.6747 -958.55701
23.933001 26.645901 -958.70599
24.5371 26.654699 -958.87201
28.943199 26.596001 -960.70001
-10.121 28.725401 -964.61798
3.7341299 27.830601 -957.95599
5.2146602 27.745899 -957.57898
14.356 27.3685 -957.09601
16.4729 27.301201 -957.21899
17.026699 27.3162 -957.30103
17.5651 27.2897 -957.30798
18.162001 27.298401 -957.42798
19.367399 27.243601 -957.67102
29.6409 27.110901 -961.07001
30.9417 27.067101 -961.724
-14.0799 29.570101 -968.25299
-5.0343599 28.8267 -961.284
-0.73913598 28.5522 -959.27802
2.42273 28.363001 -958.703
3.33722 28.3018 -958.24402
6.2729502 28.1945 -957.47198
6.8168302 28.127399 -957.42297
8.8709097 28.061199 -957.02197
16.964199 27.817499 -957.15601
17.6362 27.7899 -957.38898
19.4813 27.8283 -957.80798
21.624399 27.683599 -958.021
22.178301 27.6835 -958.17401
23.4772 27.641899 -958.67798
24.0112 27.632601 -958.77698
-18.2966 30.5359 -973.38599
-10.9396 29.754801 -965.52197
-8.6683998 29.5723 -963.85602
-5.91711 29.399099 -961.93201
-4.9886498 29.322001 -961.38098
3.91522 28.7992 -958.16302
4.8077402 28.733801 -957.75598
11.098 28.473101 -957.12903
13.836 28.3934 -957.16302
-17.853901 30.9984 -972.862
-9.13379 30.1264 -964.10797
-5.4335299 29.8407 -961.69098
-9.58002 30.667101 -964.401
0.438232 30.072001 -959.32703
-18.9578 32.2477 -974.896
-13.9795 31.6173 -968.41199
-13.5947 31.600901 -967.91602
-9.9976196 31.262501 -964.75598
-9.4927998 31.212099 -964.50702
-6.2479901 30.970501 -962.42999
-5.3645601 30.9604 -961.80902
19.5679 30.8613 -965.30701
41.584702 31.861401 -974.51599
1.21198 36.385101 -983.27399
6.3130498 35.831799 -977.034
5.3768902 36.8358 -977.29199
6.3464398 37.965401 -976.69598
4.2592802 40.2943 -972.45697
