# .PCD v0.7 - Point Cloud Data file format
VERSION 0.7
FIELDS x y z
SIZE 4 4 4
TYPE F F F
COUNT 1 1 1
WIDTH 1654
HEIGHT 1
VIEWPOINT 0 0 0 1 0 0 0
POINTS 1654
DATA ascii
-2.7271099 -6.2985301 -960.09198
-0.148926 -6.4282298 -959.60101
9.6189604 -6.8905702 -958.09601
12.3979 -7.0232801 -958.18402
13.0707 -7.0485902 -958.38599
15.2135 -7.1360698 -958.71802
17.5774 -7.2592502 -959.16901
-33.2304 -3.9536901 -993.76599
-30.769699 -4.13483 -986.68103
-28.8822 -4.2969799 -982.49298
-28.497101 -4.3246799 -981.77502
-26.088699 -4.4703398 -977.48297
-25.8304 -4.4914498 -976.59998
-25.3486 -4.5120502 -976.10901
-24.5345 -4.5701799 -975.04401
-21.4084 -4.7753301 -971.71503
-20.028 -4.85602 -970.58197
-17.022301 -5.0092101 -967.62299
-16.4804 -5.0162101 -967.39203
-16.102501 -5.0759401 -966.97498
-15.1973 -5.11517 -966.36798
-12.3165 -5.2541499 -964.521
-5.64746 -5.6045499 -961.21899
-2.64801 -5.7728601 -960.21503
2.4363401 -6.0201101 -959
-24.9116 -3.98419 -975.63397
-20.9531 -4.2210202 -971.23999
-20.010799 -4.3042202 -970.56201
-16.425699 -4.4795198 -967.41803
-15.5768 -4.5363798 -966.69501
-13.618 -4.6514602 -965.63702
-12.2905 -4.6825099 -964.51099
-9.9970703 -4.8376799 -963.21802
-7.42383 -4.9830899 -962.22101
-1.61212 -5.2632098 -959.87
-0.171387 -5.3678598 -959.48199
2.8506501 -5.4697599 -958.66901
3.46594 -5.5194502 -958.73102
12.6394 -5.9867401 -958.578
15.3818 -6.0784101 -958.84802
18.2159 -6.20785 -959.22601
18.7616 -6.2252698 -959.22302
22.7801 -6.3867202 -960.18103
23.4398 -6.44978 -960.43402
24.6271 -6.4846401 -960.71503
-25.630501 -3.3763399 -976.88202
-16.881901 -3.90043 -967.729
-15.9704 -3.93771 -967.04401
-12.3041 -4.1332202 -964.44397
-11.3641 -4.2122402 -963.86401
-10.4702 -4.2627602 -963.31299
-7.5666499 -4.4447298 -961.89398
-6.5134301 -4.4758601 -961.60101
-5.5639 -4.5169101 -961.21899
-5.17554 -4.5377002 -960.922
-2.95667 -4.6627002 -960.466
-2.7458501 -4.6655402 -959.91302
-0.64758301 -4.7794299 -959.57501
-0.16784699 -4.7804198 -959.495
1.11682 -4.8666201 -959.61298
2.91382 -4.9377899 -958.703
8.1593599 -5.19524 -958.19598
9.7389498 -5.2920599 -958.15399
10.8224 -5.3540702 -958.21503
12.6896 -5.4155898 -958.62299
13.0844 -5.4099498 -958.41302
13.713 -5.4335999 -958.539
15.3871 -5.5248599 -958.80603
15.9169 -5.5323901 -958.841
17.003901 -5.5969801 -958.93103
17.5499 -5.61446 -958.94598
18.2101 -5.65412 -959.13397
21.598301 -5.7982898 -959.802
22.2085 -5.8275299 -959.97803
27.589199 -6.0806398 -961.49597
28.2248 -6.1121302 -961.71802
-20.3354 -3.1331601 -971.03802
-16.7645 -3.35518 -967.89801
-15.9644 -3.3597701 -966.98199
-15.5681 -3.39818 -966.56598
-12.2277 -3.5882299 -964.505
-11.8395 -3.59444 -964.10699
-11.3155 -3.6459 -963.86298
-10.9202 -3.6630499 -963.62
-2.49335 -4.0914001 -960.17999
0.143188 -4.2246399 -959.14203
3.95856 -4.4074602 -958.63
5.05756 -4.4853702 -958.59601
7.77496 -4.6139798 -958.49902
9.9275503 -4.7330098 -958.46399
10.3926 -4.72822 -958.40997
12.5542 -4.8067098 -958.40399
13.1596 -4.8303599 -958.46802
14.9057 -4.9418802 -958.76001
15.325 -4.9524298 -958.664
16.4177 -4.9931002 -958.74597
17.595301 -5.04847 -958.95001
18.1772 -5.05618 -959.047
18.799299 -5.1006999 -959.18103
19.9238 -5.1480999 -959.35498
21.087 -5.2112999 -959.69
21.7103 -5.2438798 -959.89899
22.228001 -5.25881 -959.97198
22.883301 -5.2788601 -960.224
23.5399 -5.29915 -960.44299
24.0564 -5.3424602 -960.492
28.2826 -5.5075498 -961.901
28.8818 -5.53477 -962.10101
29.4725 -5.5570698 -962.29401
30.222 -5.5754199 -962.71198
-11.8107 -3.0620301 -964.09998
-6.7961402 -3.3855801 -962
-5.04144 -3.41833 -961.06
-2.60724 -3.56163 -959.96698
-0.071167 -3.6861 -959.61603
1.31836 -3.78793 -959.901
2.6195099 -3.81512 -959.19501
11.6801 -4.2417498 -958.68298
12.5476 -4.2895699 -958.32397
13.0961 -4.2957602 -958.31299
13.6977 -4.3281999 -958.42102
14.3621 -4.3705502 -958.64099
14.8935 -4.4008899 -958.67102
15.4025 -4.4029102 -958.70898
15.9581 -4.4601998 -958.78802
17.0375 -4.4953198 -958.85999
17.6266 -4.5352302 -958.96802
18.243299 -4.5355301 -959.091
19.370399 -4.5952601 -959.19501
19.9212 -4.6073098 -959.30499
20.5221 -4.6416502 -959.474
22.278601 -4.7284598 -959.98901
22.837 -4.7423201 -960.08801
23.4359 -4.76476 -960.24298
27.736601 -4.9401202 -961.77301
28.388399 -4.9683499 -962.09198
29.127399 -5.00494 -962.48901
29.650299 -5.0146599 -962.59302
34.858898 -5.2181602 -965.19702
43.763802 -5.4960299 -972.26801
-16.3853 -2.30825 -967.27802
-15.532 -2.38779 -966.54303
-11.2528 -2.61744 -963.93402
-10.3925 -2.67465 -963.26001
-5.5694599 -2.9376099 -961.05103
0.048950199 -3.2251999 -959.758
1.2090501 -3.2887001 -959.72498
3.9288299 -3.37643 -958.63
10.4189 -3.67137 -958.40002
10.8833 -3.6861 -958.28003
12.6187 -3.7916999 -958.39301
13.2426 -3.8318601 -958.492
14.3188 -3.87344 -958.521
15.4226 -3.9051299 -958.66901
15.9594 -3.9447601 -958.72302
16.459999 -3.9596901 -958.70898
17.0488 -3.9944301 -958.81403
18.160801 -4.0379901 -958.92401
18.781401 -4.0641098 -959.04401
21.655199 -4.20332 -959.73297
22.332001 -4.2034998 -960.00897
22.8613 -4.2463002 -960.08502
23.427601 -4.2687101 -960.19299
24.0599 -4.2951999 -960.38
27.1397 -4.4155102 -961.53998
27.7034 -4.42593 -961.70801
29.055099 -4.4752102 -962.383
29.635401 -4.4948401 -962.56897
30.407 -4.5455098 -963.03101
-20.465599 -1.58067 -970.70898
-16.3211 -1.82136 -967.302
-15.9511 -1.83591 -966.86798
-15.464 -1.89867 -966.60101
-12.0778 -2.0833499 -964.61102
-10.2265 -2.18086 -963.47101
-9.8796396 -2.16833 -963.11603
-7.3140302 -2.3575699 -962.021
-6.9644799 -2.38761 -961.62201
-0.396851 -2.7137499 -959.86499
2.6690099 -2.84847 -959.21802
8.3801899 -3.1254699 -958.44702
12.5853 -3.3076799 -958.32202
13.1766 -3.3436601 -958.33002
13.7733 -3.3643 -958.42798
15.3475 -3.41573 -958.52002
15.9227 -3.4489501 -958.61798
16.5989 -3.4997101 -958.85699
17.675301 -3.5290201 -958.89502
18.243 -3.5606999 -958.98401
20.5914 -3.6576099 -959.48401
21.125601 -3.6951001 -959.59802
22.2801 -3.69962 -959.87402
23.593 -3.7916 -960.36902
28.4165 -3.9690101 -962.06799
-29.397301 -0.46747601 -984.35498
-28.182301 -0.56245399 -982.151
-24.755199 -0.85253102 -975.68402
-21.305799 -1.02838 -971.61102
-20.814699 -1.0677299 -971.229
-20.3981 -1.10715 -970.80298
-20.008499 -1.13316 -970.31097
-15.4591 -1.4269201 -966.56201
-12.5962 -1.57654 -964.80603
-11.7856 -1.63447 -964.09497
-11.0591 -1.64684 -964.06
1.26685 -2.3021901 -959.75
2.1122401 -2.33145 -959.242
10.4766 -2.72597 -958.37799
11.1432 -2.7973499 -958.57098
12.6598 -2.8559101 -958.36401
13.191 -2.84672 -958.323
17.6961 -3.05109 -958.88599
18.254601 -3.06918 -958.95099
21.1588 -3.2047999 -959.58801
21.677999 -3.1920199 -959.65302
22.385401 -3.25999 -959.96899
22.955 -3.2938001 -960.11603
24.764999 -3.3231399 -960.60797
35.620602 -3.7625999 -965.52002
-25.475201 -0.28150201 -976.95502
-25.032 -0.28031901 -976.39502
-19.9072 -0.61570698 -970.42798
-16.249599 -0.86857599 -967.362
-15.93 -0.85810101 -966.82599
-15.4717 -0.90382397 -966.51202
-13.6065 -0.98833501 -965.323
-12.0795 -1.0518399 -964.50702
-11.6384 -1.1234699 -964.27802
-11.3138 -1.1150399 -963.67999
-10.3052 -1.19856 -963.328
2.6472199 -1.85943 -959.10101
4.1993399 -1.93063 -958.87299
4.71808 -1.9667701 -958.841
9.0546303 -2.17816 -958.54102
9.4737501 -2.19436 -958.37
15.3787 -2.44016 -958.47101
18.7703 -2.58357 -958.86401
21.1173 -2.69151 -959.48798
22.3825 -2.7455101 -959.93903
34.9128 -3.2184801 -965.005
-31.809 0.82194501 -991.29303
-29.7206 0.59693098 -985.35797
-28.8522 0.53249401 -983.81598
-25.9135 0.31321001 -977.65997
-24.698099 0.23368099 -975.67603
-24.210501 0.16717499 -975.27698
-20.362101 -0.093208298 -970.78802
-19.9093 -0.122406 -970.42401
-16.34 -0.356644 -967.177
-15.4453 -0.400841 -966.51898
-14.5201 -0.45174399 -965.95502
-11.7377 -0.56284302 -964.07001
-10.6465 -0.65398401 -963.71997
-10.0378 -0.75164801 -963.70398
-8.7770395 -0.77571899 -962.70502
1.21735 -1.30796 -959.62701
1.72168 -1.31782 -959.46997
13.8384 -1.87854 -958.35602
15.4083 -1.94126 -958.47101
16.5298 -2.00049 -958.61902
21.716299 -2.18572 -959.625
-29.180099 1.11606 -984.74103
-28.4277 1.0202399 -983.17401
-25.485701 0.80459601 -976.90601
-25.030199 0.75439501 -976.35602
-24.6975 0.74388099 -975.68799
-21.2227 0.49943501 -971.65503
-19.855 0.38891599 -970.45502
-16.7817 0.218536 -967.52002
-16.2623 0.172684 -967.25
-15.8688 0.171455 -966.81702
-14.4377 0.086448699 -966.02399
-10.7296 -0.13105799 -963.54797
-2.8129301 -0.57841498 -960.41901
-2.49066 -0.56494898 -960.04401
12.7883 -1.30046 -958.41101
18.339899 -1.55825 -958.93597
-31.088301 1.82629 -989.19702
-28.801901 1.65962 -983.935
-25.0403 1.3455 -976.30499
-24.2211 1.2772501 -975.24701
-23.316999 1.22179 -974.37903
-21.1425 1.04905 -971.76501
-20.7908 1.0511 -971.15198
-20.304899 1.01487 -970.80298
-16.653799 0.77315497 -967.70502
-16.2649 0.750404 -967.21899
-15.4337 0.717682 -966.45001
-14.9479 0.67169201 -966.224
-11.9899 0.47598299 -964.521
-11.0904 0.422562 -963.901
-2.29895 -0.049247701 -960.32202
1.3142101 -0.19869199 -959.63202
2.1226799 -0.26636499 -959.07898
2.77985 -0.27239999 -959.13702
3.74951 -0.34274301 -958.88397
29.127001 -1.40121 -962.23798
-20.67 1.59692 -971.302
-20.278299 1.55975 -970.80798
-16.6171 1.32813 -967.73199
-16.209801 1.32459 -967.25702
-15.8048 1.28844 -966.88599
-12.0418 1.0380599 -964.44
-11.4801 1.00099 -964.29199
-11.1448 1.01835 -963.74298
-10.1768 0.96969599 -963.40802
0.0741577 0.429138 -959.52802
2.1847501 0.302856 -959.117
3.19958 0.27201101 -958.84302
5.8192101 0.12993599 -958.604
8.9459801 -0.0059509301 -958.203
13.8812 -0.244904 -958.29303
15.414 -0.302719 -958.33801
17.1936 -0.36447099 -958.68402
17.820801 -0.40967599 -958.81897
18.3421 -0.44216201 -958.823
18.931999 -0.45636001 -958.90802
19.550501 -0.45706201 -959.07397
20.062201 -0.49263799 -959.10901
21.2784 -0.56052399 -959.51099
22.337299 -0.59037799 -959.66998
24.260799 -0.67388201 -960.35199
24.893999 -0.69604498 -960.54602
27.848801 -0.78849 -961.62097
28.4454 -0.80939502 -961.83899
29.226299 -0.84996003 -962.33301
37.084099 -1.0838701 -966.521
-15.6802 1.87366 -967.01599
-11.9971 1.60444 -964.45898
-11.1482 1.59245 -963.70203
-8.73456 1.35236 -962.54901
-7.3231201 1.39335 -961.75299
-6.3328199 1.3343101 -961.40198
1.38806 0.91584802 -959.62
2.7793 0.85919201 -959.04102
6.9107099 0.64810199 -958.50897
9.5272198 0.528198 -958.22101
9.98279 0.52565002 -958.14502
12.7256 0.39173099 -958.14398
13.273 0.37206301 -958.14099
14.3865 0.30648801 -958.23199
15.0547 0.27783999 -958.45599
15.5737 0.25212899 -958.51202
16.1667 0.231079 -958.64001
16.6833 0.23243 -958.625
18.3971 0.113663 -958.83899
19.512199 0.096229598 -958.97998
20.6693 0.041206401 -959.26202
21.852699 -0.0093307504 -959.62299
22.4482 -0.030265801 -959.79102
23.034901 -0.0319672 -959.92999
23.6873 -0.075767502 -960.15399
24.239201 -0.076271102 -960.25403
24.8692 -0.102974 -960.44702
27.2899 -0.179001 -961.367
29.18 -0.25694999 -962.22601
29.8311 -0.27349901 -962.513
33.636398 -0.40901199 -964.12299
-15.7505 2.37449 -966.89099
-12.0611 2.1584201 -964.28802
-10.183 2.0243101 -963.28601
-9.4198599 1.9925801 -962.633
-2.3392301 1.64713 -960.17297
1.32977 1.4309601 -959.49799
2.26373 1.38554 -959.14099
2.8392899 1.38281 -959.09998
4.7505498 1.29217 -958.60199
5.3234301 1.24582 -958.625
6.9230299 1.18463 -958.46899
7.9791298 1.11727 -958.30402
10.5612 1.01363 -958.16998
13.3273 0.877289 -958.17999
13.8652 0.848961 -958.17499
16.077101 0.768852 -958.453
16.644899 0.74236298 -958.54199
17.2728 0.71205902 -958.69299
20.1642 0.62128401 -959.15302
21.2985 0.558029 -959.45398
21.8538 0.53015101 -959.57898
22.3785 0.52562702 -959.638
23.094 0.512779 -959.97198
23.565901 0.48608401 -959.94702
24.2733 0.43784299 -960.263
27.312 0.334351 -961.36798
28.588499 0.30351999 -961.94202
29.2052 0.262878 -962.21198
29.958799 0.23777799 -962.64001
30.620899 0.227715 -962.95599
37.238499 0.035873398 -966.62299
-20.157801 3.1714201 -970.91901
-10.6161 2.5913501 -963.60797
-9.3649302 2.4577601 -962.67499
-7.2734399 2.39013 -961.87201
-6.7232699 2.33427 -961.87097
-6.0715899 2.29353 -961.77899
-5.0813599 2.22121 -961.5
0.17352299 1.99648 -959.52002
2.4154699 1.86954 -959.29797
2.74841 1.85734 -958.94598
3.33112 1.8423899 -958.909
4.8731699 1.77096 -958.73102
7.9788198 1.62634 -958.26001
10.6271 1.49686 -958.21301
14.5338 1.31364 -958.35498
14.9937 1.30595 -958.26801
15.525 1.28 -958.34601
16.122801 1.25571 -958.48999
17.2369 1.22666 -958.61401
18.357201 1.18642 -958.70099
19.617399 1.13814 -959.02301
20.635201 1.0758899 -959.12097
21.2938 1.0514801 -959.39899
24.8857 0.91471899 -960.40997
28.0014 0.81263 -961.69202
28.629999 0.785034 -961.96198
29.2883 0.77543598 -962.28802
29.9548 0.76287103 -962.60101
30.666599 0.73223102 -962.98297
37.226299 0.529037 -966.56201
-24.4771 3.94749 -975.94501
-21.0336 3.7365401 -971.79901
-16.174 3.40517 -967.21002
-15.2946 3.35063 -966.479
-12.45 3.16294 -964.68799
-10.9955 3.08762 -963.86102
-10.6783 3.0836599 -963.448
-8.6626596 2.94083 -962.51703
-7.21173 2.8726299 -961.948
-2.6965899 2.6254599 -960.461
-2.19666 2.58916 -960.31598
3.76825 2.3146701 -958.67401
4.3154898 2.3025401 -958.67603
12.8742 1.8959 -958.25403
14.0269 1.82858 -958.34399
14.4145 1.81468 -958.14203
15.5644 1.78626 -958.34003
16.098 1.7529 -958.40302
16.650299 1.72472 -958.46899
18.999701 1.6389101 -958.81299
21.358601 1.53249 -959.47498
21.9349 1.52827 -959.60901
22.5522 1.51016 -959.78198
23.133101 1.4778 -959.94098
23.753201 1.4526401 -960.12799
24.939199 1.42225 -960.43103
27.3405 1.33293 -961.33801
28.6313 1.29494 -961.93103
29.210501 1.29193 -962.146
29.915199 1.2606699 -962.51202
30.6731 1.20389 -962.96301
-20.5723 4.1712198 -971.35602
-19.7341 4.1259499 -970.422
-16.5333 3.8986101 -967.69501
-16.0613 3.8562901 -967.33801
-15.6854 3.8415501 -966.90002
-15.1636 3.8122599 -966.67499
-11.4894 3.6084099 -964.04498
-7.1027799 3.3254299 -962.14398
1.51349 2.8621199 -959.66101
2.83289 2.8310499 -958.96997
13.4395 2.33461 -958.23199
13.9504 2.31761 -958.172
15.5646 2.25314 -958.31897
17.297701 2.18401 -958.625
19.558901 2.0892899 -958.87701
20.756201 2.04281 -959.21503
21.331499 2.02092 -959.38702
21.9203 2.01071 -959.53601
24.3498 1.90434 -960.263
27.2777 1.84077 -961.211
33.721401 1.64104 -964.146
36.5191 1.55785 -966.14099
37.341202 1.5154001 -966.61798
-28.641399 5.3854799 -984.27502
-28.25 5.3617101 -983.49701
-27.845699 5.3169098 -982.79901
-24.750099 4.9672999 -976.995
-24.2924 4.9829998 -976.25098
-23.6008 4.9145699 -974.94598
-16.496 4.4038301 -967.71899
-16.1271 4.3739901 -967.24597
-15.5735 4.3517799 -967.07599
-11.9674 4.1518502 -964.26001
-11.5291 4.09514 -963.95203
-10.4967 4.0488 -963.63397
0.274353 3.4621699 -959.58398
2.84833 3.33603 -958.95599
4.8238502 3.2439499 -958.54498
7.0623798 3.12778 -958.505
10.6776 2.9621999 -958.172
13.4582 2.8563199 -958.198
14.5175 2.81268 -958.20898
16.775801 2.6977799 -958.53699
19.0497 2.6261499 -958.82001
21.939199 2.5161901 -959.526
24.2913 2.4309499 -960.15198
-28.1537 5.9038901 -983.69
-24.7707 5.5367699 -977.00201
-24.302099 5.4883299 -976.49402
-23.932301 5.4705601 -975.76099
-20.482 5.1956701 -971.55701
-19.957399 5.16677 -971.19397
-19.685699 5.1756401 -970.47699
-16.506701 4.9296398 -967.70203
-16.053499 4.8874402 -967.30499
-15.6024 4.8727298 -967.04303
-10.504 4.5803099 -963.58398
-10.0087 4.5203199 -963.31
-3.1478901 4.1721301 -960.64801
0.27862501 3.9779799 -959.54199
2.39551 3.85834 -959.151
4.0161099 3.7815299 -958.94702
7.0643902 3.6316099 -958.492
15.6273 3.28124 -958.34198
-30.6071 6.7257299 -990.70697
-27.7747 6.3882098 -982.95001
-25.048599 6.0931201 -977.87598
-24.109301 6.0134501 -976.84302
-23.7866 5.96735 -976.091
-20.479 5.7508502 -971.65302
-19.956301 5.6792698 -971.26703
-19.546101 5.6434698 -970.74103
-19.0916 5.6364198 -970.36499
-15.9686 5.37322 -967.47498
-14.2341 5.3169599 -966.09497
-11.9088 5.17558 -964.354
-11.3519 5.1246901 -964.15698
-10.992 5.1212101 -963.755
-9.9861498 5.0706902 -963.39203
-8.3851299 4.89713 -963.05603
0.389404 4.4921899 -959.664
2.32587 4.4075198 -959.013
4.9806499 4.2545199 -958.70398
10.7844 4.0057201 -958.242
13.0425 3.9065599 -958.354
37.993801 3.1198001 -966.94
-24.4886 6.6171398 -977.48499
-23.756201 6.5615301 -976.19702
-20.302 6.3032398 -971.95001
-19.105301 6.18012 -970.45099
-16.9263 6.0406299 -968.20502
-16.4284 6.01651 -967.89301
-15.9231 5.9934702 -967.61298
-15.4197 5.9462399 -967.40002
-14.4956 5.8980598 -966.828
-11.008 5.6535501 -963.78497
-4.0724502 5.27214 -961.14001
0.383057 5.0325098 -959.64203
1.37354 5.0155902 -959.32098
2.8682899 4.92699 -958.867
3.39679 4.9073901 -958.76801
8.2678804 4.6530299 -958.435
14.0084 4.42805 -958.09802
22.5842 4.0920601 -959.67499
23.9088 4.0373702 -960.16803
-29.075001 7.6277099 -986.80701
-19.3519 6.79182 -971.21503
-15.4372 6.5181499 -967.38098
-15.0471 6.4785199 -966.96198
-10.4258 6.1753802 -963.80298
-9.8571196 6.1227798 -963.724
-6.4696698 6.0219598 -961.89899
-4.5479698 5.8629398 -961.20599
-2.18256 5.7413402 -960.15399
1.41199 5.5592499 -959.341
2.53198 5.49579 -959.245
2.97174 5.4626198 -958.97198
3.42975 5.4386001 -958.78003
4.4844398 5.3748202 -958.70599
7.6153002 5.2246799 -958.315
8.1022301 5.2386098 -958.15503
14.124 4.9622998 -958.22601
15.2244 4.9242301 -958.35797
15.6887 4.9017 -958.30798
17.468901 4.82935 -958.69202
18.5751 4.8080201 -958.75
19.1262 4.7914701 -958.78601
19.746799 4.7628298 -958.93298
21.4359 4.67242 -959.34302
27.547701 4.4969401 -961.409
28.115101 4.4671001 -961.63501
29.480301 4.42451 -962.32001
30.108101 4.4238901 -962.59302
30.6915 4.3909101 -962.79498
34.097 4.3176198 -964.84497
-23.632401 7.68858 -976.42798
-19.796301 7.3923101 -971.66602
-6.4869399 6.5721402 -961.86499
-5.0379 6.4155998 -961.32599
-4.5384498 6.4288301 -961.24103
-2.0437 6.2581601 -960.31598
-0.93682897 6.2117801 -960.13098
0.57983398 6.1628299 -958.99799
2.43103 6.0718799 -959.03699
3.0229499 6.0150499 -959.021
8.2283297 5.8056598 -958.29999
13.0592 5.5766001 -958.23999
13.4921 5.55302 -958.08502
14.0063 5.5428801 -958.021
15.7468 5.4633498 -958.34998
16.260799 5.46558 -958.37097
18.515699 5.3744302 -958.63202
20.9575 5.2731199 -959.27802
21.564301 5.2470198 -959.492
22.0112 5.2371998 -959.46002
22.6716 5.2175102 -959.72498
23.195101 5.21104 -959.79401
23.9217 5.1816401 -960.11499
24.543501 5.16676 -960.33002
25.0793 5.1391802 -960.39697
28.178499 5.0711498 -961.68799
28.8132 5.0132699 -961.95697
29.544701 4.9988198 -962.37097
30.1884 4.9936199 -962.67401
30.7472 4.9779501 -962.86603
31.4328 4.9759402 -963.20697
-16.2223 7.6879201 -968.28699
-9.8143301 7.25525 -963.763
-6.9005699 7.0697598 -962.22601
-3.9713099 6.9485698 -961.14502
-2.3831799 6.8201098 -960.65302
-0.68463099 6.7776299 -959.65698
-0.00128174 6.73067 -959.80402
2.5626199 6.56815 -959.185
3.45123 6.55723 -958.72699
4.5718398 6.4801602 -958.73401
4.99646 6.4752698 -958.57898
6.16187 6.4098902 -958.625
10.8 6.2249599 -958.11102
11.9563 6.1519198 -958.21997
13.5367 6.0992098 -958.10999
14.6942 6.0566201 -958.245
15.285 6.0306501 -958.35199
16.259501 5.9969001 -958.33002
17.499599 5.93223 -958.65503
19.3123 5.8789301 -959.00299
22.1042 5.7726002 -959.58502
22.753401 5.7575102 -959.78497
23.8333 5.7410002 -959.953
27.554899 5.6091399 -961.36298
29.503799 5.5271201 -962.30402
30.891199 5.4964299 -963.03003
34.871399 5.4203 -965.36499
36.3521 5.3584099 -966.43201
37.123001 5.3612299 -967.01599
37.77 5.3789201 -967.41803
-15.6506 8.1521502 -968.052
-15.3066 8.1142998 -967.56403
-10.6077 7.8291202 -964.42297
-10.2068 7.8109798 -964.17999
-0.89855999 7.2539601 -960.10901
-0.0166016 7.2053199 -959.73401
0.450073 7.1663699 -959.58398
2.6673601 7.0716701 -959.31
4.5551801 6.9938402 -958.69098
5.6481299 6.9591498 -958.69299
6.6107798 6.9084101 -958.43597
10.8978 6.6935201 -958.21802
11.9402 6.6542001 -958.15698
13.0242 6.6160302 -958.12299
14.73 6.5443902 -958.263
15.8541 6.4881701 -958.45898
18.587299 6.40728 -958.68201
19.3395 6.3977098 -958.987
22.025499 6.2959399 -959.40802
22.8053 6.2306199 -959.85498
23.3613 6.22717 -959.96899
23.905899 6.1847701 -960.052
24.624599 6.16745 -960.38397
25.0909 6.1594701 -960.35498
27.6168 6.0875602 -961.435
28.210699 6.0876999 -961.67999
30.2626 6.0227699 -962.72601
30.8964 6.0176201 -963.00201
34.171501 5.9320798 -964.87201
34.9366 5.9040499 -965.427
36.343399 5.89397 -966.39899
37.715599 5.88902 -967.34302
-23.9517 9.3145599 -977.17603
-19.3057 8.9212999 -971.28003
-15.7106 8.6584501 -967.95502
-14.3696 8.5363598 -966.96698
-13.9082 8.5189304 -966.64099
-10.2194 8.2834501 -964.099
-9.6809101 8.2349596 -963.88202
0.482788 7.6834002 -959.599
1.02545 7.6547198 -959.51801
2.9976201 7.5644898 -958.89502
6.18958 7.4099698 -958.604
6.65308 7.4009299 -958.47601
8.1842699 7.2979598 -958.14697
10.8472 7.19419 -958.10101
14.2023 7.0580702 -958.20099
15.2985 7.0074501 -958.30499
16.440399 6.9507999 -958.53003
16.9084 6.95123 -958.474
17.5233 6.9387698 -958.60699
18.6423 6.9206901 -958.73602
19.280199 6.8569198 -958.88898
20.921 6.79913 -959.14801
21.537399 6.78723 -959.36298
25.0793 6.6802301 -960.30402
26.304399 6.6434202 -960.758
27.6635 6.6020999 -961.48999
28.278 6.5698299 -961.75299
29.5539 6.5191302 -962.32599
30.9175 6.5169902 -962.995
-27.0935 10.1014 -982.95599
-16.0986 9.1593103 -968.46002
-11.5797 8.8537302 -964.95898
-11.1086 8.7802 -964.61298
-2.0504799 8.2907696 -960.16602
1.63574 8.0989199 -959.52002
2.60919 8.05021 -959.18701
3.112 8.0246201 -959.01501
4.4510498 7.99301 -958.45898
5.0221601 7.9376898 -958.52301
8.2986498 7.76724 -958.28101
10.8641 7.6628599 -958.11798
13.1169 7.5654402 -958.21198
14.1565 7.5159302 -958.12402
14.6636 7.5237799 -958.11401
15.2622 7.5005002 -958.245
15.7242 7.4594998 -958.20697
21.5511 7.2582002 -959.36401
22.8307 7.2067199 -959.84497
24.544701 7.1825199 -960.20898
25.182899 7.1430702 -960.42603
27.6654 7.0741501 -961.45398
35.674999 6.9070101 -965.93201
41.531799 6.8779802 -970.67102
-28.451799 10.7588 -986.57898
-27.4037 10.6671 -983.81
-24.120001 10.3324 -978.12097
-19.638901 9.9174004 -971.86902
-19.2213 9.9050303 -971.39398
-16.130301 9.6461601 -968.40302
-14.7415 9.5446501 -967.34399
-10.5802 9.2776899 -964.41803
-4.9293799 8.9609098 -961.33197
-0.87139899 8.7341805 -960.05103
1.6236 8.5815697 -959.47302
2.5559101 8.5565996 -959.086
3.17133 8.5190201 -959.065
3.51794 8.4996595 -958.72302
5.6581402 8.3847399 -958.61102
8.7005596 8.2456102 -958.01099
14.2493 8.0129995 -958.20502
15.297 7.9685302 -958.25403
15.8376 7.9425802 -958.34198
17.051201 7.90172 -958.59698
20.431 7.78619 -959.04602
-24.5975 10.882 -978.72699
-19.9368 10.4666 -972.53302
-19.190001 10.4111 -971.44598
-16.014601 10.1632 -968.54102
-15.6802 10.1394 -967.98199
-14.6811 10.0756 -967.43903
-11.919 9.8720102 -965.45898
-10.543 9.8072996 -964.47101
0.162292 9.1626997 -959.88397
0.57604998 9.1356297 -959.66901
4.2130699 8.9474201 -958.85699
4.6318998 8.9359303 -958.672
8.2779503 8.78757 -958.18799
19.3015 8.3513298 -958.81897
-27.9055 11.8148 -986.04498
-27.259501 11.7279 -984.17999
-24.233999 11.3895 -978.00299
-22.9512 11.257 -976.35498
-20.349701 11.0279 -973.07001
-19.577101 10.9692 -971.95502
-18.767 10.9202 -971.04303
-15.4838 10.6251 -968.27002
-15.1123 10.6062 -967.81799
-10.4284 10.3214 -964.59998
-10.1506 10.2888 -964.09497
-9.1374502 10.2422 -963.73901
0.123169 9.6841097 -959.77301
1.7979701 9.61866 -959.63501
3.1849999 9.5566902 -959.013
8.7834501 9.3115702 -957.98401
10.4445 9.2260303 -958.078
15.902 9.0066099 -958.25897
22.823299 8.78232 -959.677
30.3631 8.5593395 -962.75201
-25.7218 12.126 -981.18903
-19.538601 11.542 -972.05402
-19.140499 11.4952 -971.53601
-15.6075 11.2445 -968.08002
-15.2042 11.1941 -967.65802
-14.2693 11.1516 -967.03802
-11.8419 10.9819 -965.47803
-11.4861 10.9562 -964.97101
-10.5086 10.9043 -964.45898
-9.4152803 10.806 -964.16699
-3.16467 10.447 -961.12097
-2.2554901 10.448 -960.578
-1.87 10.3987 -960.22198
0.155334 10.2747 -959.70398
1.6645499 10.1799 -959.27899
3.0415001 10.127 -958.62299
5.1118202 10.0049 -958.341
5.6148701 9.9523296 -958.28802
10.3004 9.75774 -957.74799
13.1554 9.6562796 -957.91901
14.7999 9.6041803 -957.966
15.2914 9.59688 -957.95398
15.8987 9.5577202 -958.11401
16.486601 9.5264196 -958.245
18.6901 9.4524498 -958.43903
22.889601 9.3249502 -959.59198
24.025 9.2837496 -959.85901
-23.6215 12.4839 -977.79102
-19.9452 12.1584 -972.51801
-19.099501 12.0945 -971.59601
-15.4722 11.7826 -968.28998
-10.3541 11.412 -964.62
-9.11975 11.3769 -963.66302
-7.99719 11.3162 -963.29602
-7.0122099 11.2612 -962.75598
-6.7040401 11.2567 -962.25598
-5.6079702 11.1559 -961.92798
-1.90497 10.9177 -960.04401
0.60296601 10.7702 -959.39203
3.12708 10.6756 -958.62402
5.164 10.5593 -958.34003
5.6430702 10.5272 -958.22198
8.8777504 10.4082 -957.909
11.9977 10.2339 -957.823
12.5671 10.2242 -957.79498
13.718 10.2336 -957.85101
14.2646 10.1604 -957.87402
15.3483 10.1238 -957.93597
16.3927 10.092 -958.07202
16.950199 10.0604 -958.12701
17.516199 10.0514 -958.19098
18.6887 10.0032 -958.375
19.371799 9.9616299 -958.604
19.8887 9.9320097 -958.61902
21.58 9.9021997 -958.979
22.8529 9.8533201 -959.46503
23.9265 9.8435497 -959.62402
27.6833 9.7343798 -961.078
38.082001 9.5774097 -967.79901
-15.5018 12.3581 -968.21301
-15.0788 12.3189 -967.85498
-11.3967 12.0764 -965.03998
-7.0798998 11.7647 -962.552
-5.6374502 11.6449 -961.75403
0.26141399 11.3762 -959.65399
1.70728 11.3226 -959.159
2.67627 11.2808 -958.77802
14.282 10.7043 -957.73901
16.453899 10.6207 -957.98499
19.968399 10.5108 -958.57202
20.3799 10.5205 -958.487
22.266701 10.4413 -959.21802
24.5942 10.3431 -959.84601
27.049 10.3276 -960.72302
29.0338 10.2805 -961.71198
30.197599 10.3162 -962.12299
31.0443 10.2786 -962.70502
-18.909599 13.1749 -971.914
-10.0654 12.5089 -963.90698
-9.5139198 12.4652 -963.80298
-1.39307 12.0202 -959.75403
1.60101 11.8244 -958.91199
3.1295199 11.7141 -958.422
7.79352 11.4971 -957.65503
8.7301598 11.4517 -957.36298
9.3497295 11.4372 -957.414
10.4205 11.3861 -957.45398
13.6964 11.2484 -957.41699
14.0997 11.2145 -957.24799
15.7601 11.1746 -957.42102
16.363001 11.1492 -957.56403
16.9464 11.1249 -957.672
17.399799 11.1213 -957.59399
20.935699 10.999 -958.28601
22.1166 10.9503 -958.66199
26.369801 10.8677 -960.04401
35.1022 10.6822 -965.159
-18.889601 13.6548 -971.94702
-15.3685 13.3896 -968.30103
-10.4243 13.0108 -964.23401
-10.0391 13.0108 -963.86401
-9.5495596 12.987 -963.68597
-8.1265297 12.8813 -962.89099
-3.2973001 12.5825 -960.51801
-1.41882 12.4756 -959.51398
2.5058 12.2558 -958.25201
3.02002 12.2175 -958.10699
3.5809901 12.1862 -958.04999
4.52075 12.1738 -957.75897
8.2376699 11.9944 -957.32001
8.6526499 11.9907 -957.10303
10.8556 11.8754 -957.19299
12.9976 11.7819 -957.09302
13.5727 11.7694 -957.11401
14.683 11.711 -957.18701
16.3323 11.6526 -957.40698
20.9244 11.5025 -958.15002
21.499599 11.4844 -958.31799
22.0399 11.456 -958.42297
23.281401 11.4266 -958.83099
23.8752 11.413 -958.979
25.122101 11.3694 -959.362
25.7276 11.3495 -959.57098
27.482901 11.3031 -960.23401
28.163799 11.2715 -960.62701
-15.0328 13.8423 -967.63898
-10.4456 13.5534 -964.16498
-9.3010302 13.4534 -963.09198
-6.6216998 13.2875 -961.97101
-6.2404799 13.287 -961.56097
-2.90851 13.0151 -960.02197
-2.3940401 13.0223 -959.81
-1.45752 12.9661 -959.32397
-0.84942597 12.9361 -959.31702
-0.00250244 12.8628 -958.888
1.57129 12.7928 -958.573
3.1281099 12.7047 -958.14203
4.55933 12.6513 -957.71399
5.0528598 12.6235 -957.64001
8.2396898 12.4738 -957.22498
10.8541 12.3532 -957.07001
13.0172 12.265 -957.005
13.5502 12.2358 -956.97601
15.715 12.1541 -957.14001
16.3253 12.126 -957.29901
16.841299 12.1269 -957.29901
18.5641 12.0772 -957.50897
20.261999 12.0192 -957.78003
22.5951 11.9349 -958.40399
23.8724 11.918 -958.84601
25.010099 11.884 -959.10303
27.532 11.79 -960.18402
28.180201 11.776 -960.50201
30.063801 11.7364 -961.34998
30.749399 11.7536 -961.68799
34.185902 11.7052 -963.84998
-26.8841 15.5315 -985.30798
-24.157499 15.179 -979.72601
-15.8699 14.392 -968.448
-15.3857 14.3337 -968.07599
-15.0184 14.3294 -967.60797
-14.1271 14.2562 -966.94299
-10.1113 13.9394 -963.54999
-6.33215 13.7296 -961.26801
-5.8603501 13.7021 -961.03802
-5.2537799 13.6421 -961.04797
-4.8698702 13.6333 -960.71198
-2.01196 13.4557 -959.32397
0.584961 13.3224 -958.77002
3.6124899 13.1581 -957.88702
6.6342201 13.0233 -957.34601
8.1292696 12.9526 -956.96198
10.7988 12.8455 -956.914
14.1189 12.7014 -956.909
15.7283 12.6329 -957.073
16.3221 12.6182 -957.18701
17.963499 12.5742 -957.30798
18.555 12.5261 -957.40601
20.836 12.4616 -957.80402
21.9667 12.4541 -958.09399
24.415199 12.3695 -958.83502
28.151899 12.2719 -960.34802
29.4174 12.2534 -960.93298
30.6581 12.227 -961.43701
-25.7013 15.9178 -982.97302
-24.5161 15.7609 -980.60498
-24.0896 15.7088 -979.909
-18.4674 15.1145 -971.23401
-15.8856 14.915 -968.41803
-14.1323 14.7737 -966.83801
-11.8684 14.5748 -964.86298
-11.0116 14.5193 -964.03101
-10.0567 14.4497 -963.48297
-6.7783799 14.2336 -961.487
-6.198 14.1938 -961.367
-2.4563601 13.9832 -959.51599
-0.488464 13.8708 -958.776
0.077819802 13.8361 -958.784
0.53338599 13.8255 -958.59302
2.60583 13.7145 -958.07703
3.0374801 13.6759 -957.81403
3.5927701 13.662 -957.72998
4.4909701 13.6224 -957.41302
5.0928302 13.5915 -957.50201
5.54456 13.5829 -957.34497
15.699 13.1641 -956.94299
19.684799 13.0281 -957.43701
22.580299 12.9241 -958.20697
36.187099 12.6599 -964.94
-21.3444 15.9145 -975.164
-20.534901 15.8352 -973.86298
-20.1215 15.8074 -973.18903
-10.5833 15.0164 -963.56598
-10.092 14.9766 -963.34003
-9.6359901 14.9527 -963.09399
-6.7641001 14.7323 -961.40503
-6.3649902 14.6992 -961.02002
-5.7403002 14.6422 -961.01501
0.101501 14.3311 -958.73901
5.1145601 14.0685 -957.479
6.6725502 14.018 -957.26703
14.0764 13.7507 -956.763
-24.1115 16.774 -979.95001
-15.8942 15.9247 -968.091
-14.1962 15.7995 -966.40302
-11.4534 15.5707 -964.18903
-6.7905302 15.2705 -961.30798
-6.3579102 15.2022 -961.01703
-0.96502697 14.9232 -958.79999
0.51495397 14.8455 -958.44897
1.60168 14.7789 -958.27399
2.70398 14.7375 -958.112
3.0628099 14.7252 -957.73199
4.1677198 14.6624 -957.672
4.60321 14.636 -957.48999
13.6143 14.2786 -956.80298
29.3946 13.798 -960.65698
-22.98 17.175699 -977.46301
-18.9063 16.732901 -971.39001
-17.633801 16.6028 -969.92902
-17.174 16.582001 -969.51202
-15.8349 16.4737 -968.09399
-15.4852 16.465 -967.48297
-15.0707 16.4203 -967.03003
-14.5128 16.382099 -966.80798
-10.9529 16.081499 -963.78003
-10.3903 16.059 -963.65601
-10.0572 16.017799 -963.19098
-9.6443501 15.9986 -962.88599
-7.19031 15.8399 -961.61499
-2.3482101 15.5438 -959.43298
1.73419 15.3232 -958.435
2.7326701 15.2948 -958.12201
3.0982699 15.2645 -957.771
4.2382798 15.2012 -957.71997
4.5506601 15.2045 -957.375
14.1748 14.768 -956.83301
18.6595 14.6393 -957.388
28.112 14.3955 -960.03802
-14.5691 16.9319 -966.60699
-13.7005 16.861 -965.90802
-11.0068 16.661301 -963.65802
-10.0313 16.5853 -963.17499
-9.0724497 16.5179 -962.73102
-6.6494098 16.466499 -961.39398
2.72809 15.8496 -958.04901
3.1814001 15.8148 -957.84198
4.5693402 15.7608 -957.40002
9.7546997 15.5305 -956.69299
13.0164 15.3988 -956.703
13.6185 15.3718 -956.78699
15.8572 15.2738 -957.05902
16.3901 15.2731 -957.09998
16.8454 15.2651 -957.00403
17.534401 15.2337 -957.24799
18.072599 15.2406 -957.263
18.6464 15.1919 -957.34003
19.2866 15.1629 -957.49701
19.8169 15.1571 -957.53497
21.017799 15.1274 -957.87097
21.580999 15.09 -958.01501
22.054701 15.0905 -958.02399
23.242599 15.041 -958.36499
23.865299 15.0365 -958.54797
24.477699 15.0186 -958.70898
25.128599 15.0089 -958.95001
27.5966 14.9563 -959.92603
28.888399 14.9191 -960.51001
34.782299 14.8396 -963.67102
36.980499 14.8583 -965.255
37.647202 14.8245 -965.711
38.362202 14.8226 -966.25897
-9.56744 17.125401 -962.92999
-9.0141602 17.1105 -962.797
-6.7246099 16.918501 -961.29901
-1.86523 16.663 -959.18103
0.55346698 16.5305 -958.43298
3.13763 16.3839 -957.77399
4.7164302 16.3022 -957.54901
9.5281401 16.112301 -957.09003
9.8223305 16.119301 -956.76599
13.0454 15.9772 -956.72198
13.6028 15.9368 -956.74103
14.2397 15.9129 -956.86401
15.8483 15.8713 -957.00299
16.3957 15.8661 -957.05298
18.122999 15.7992 -957.30902
18.662001 15.764 -957.34003
19.295099 15.7512 -957.49298
21.075001 15.7137 -957.90503
21.5578 15.6883 -957.96802
22.180201 15.6608 -958.16699
23.2369 15.6508 -958.30499
24.606899 15.5857 -958.86603
25.784401 15.5653 -959.17102
28.271999 15.5145 -960.24103
28.924299 15.499 -960.55298
35.570301 15.4296 -964.27502
-15.4129 18.099199 -967.37201
-10.7939 17.752501 -963.94702
0.16064499 17.0562 -958.65399
3.21399 16.9123 -957.83899
4.2536602 16.8668 -957.65601
4.7393799 16.8239 -957.56403
5.2232699 16.8048 -957.48199
14.2589 16.435101 -956.85999
14.8673 16.422199 -956.98297
15.9142 16.386801 -957.08099
16.395399 16.374399 -957.02197
18.730301 16.295099 -957.39801
19.8741 16.261101 -957.55103
21.0557 16.2278 -957.85699
21.568199 16.2201 -957.94299
22.157801 16.1777 -958.12097
22.664101 16.189501 -958.16199
23.3633 16.1532 -958.466
24.028099 16.1427 -958.70502
24.5861 16.135401 -958.82001
27.6793 16.045 -959.98297
28.225901 16.040501 -960.17902
34.169899 15.9672 -963.30902
34.806999 15.9886 -963.68402
35.664001 15.9721 -964.38501
37.1371 15.9647 -965.47101
-19.688299 18.983801 -972.05402
-19.2271 18.941401 -971.63501
-14.9025 18.569401 -967.11603
-10.7634 18.226101 -963.96997
-9.8754902 18.1731 -963.36102
-9.4566698 18.1646 -963.04901
-6.1378798 17.973 -961.26099
1.82166 17.461 -958.42902
3.7818601 17.357401 -957.784
4.24365 17.3703 -957.60699
4.7272301 17.3297 -957.50897
11.5407 17.055401 -956.89301
13.1743 17.003799 -956.84399
13.7631 16.9508 -956.91199
14.3675 16.9233 -956.99402
15.8696 16.9013 -956.97101
16.4534 16.868999 -957.10199
17.087999 16.8535 -957.245
17.578899 16.8312 -957.22302
18.744699 16.799801 -957.39099
21.121599 16.7215 -957.922
21.6082 16.699301 -957.979
22.8134 16.673599 -958.33197
23.389299 16.655899 -958.49103
23.9512 16.6474 -958.58197
24.6989 16.6371 -958.95001
27.7094 16.5632 -960.008
28.362801 16.555201 -960.32898
29.5527 16.536501 -960.77502
30.2868 16.511801 -961.21997
31.6224 16.5005 -961.87097
34.239101 16.476801 -963.38501
35.685501 16.4398 -964.422
40.835201 16.5144 -968.56799
-20.059799 19.5201 -972.70398
-15.8124 19.138 -967.84698
-14.0511 19.0177 -966.34998
-13.0165 18.914801 -965.81897
-10.2628 18.7274 -963.737
-9.9436598 18.6772 -963.263
-9.4470797 18.6474 -963.05298
-7.0183101 18.494101 -961.67999
1.9259599 17.9652 -958.54102
3.1893899 17.911301 -957.74402
4.70648 17.8426 -957.43799
5.77496 17.787701 -957.38501
10.9088 17.5497 -956.73199
11.4874 17.532 -956.78699
13.2295 17.4751 -956.91101
14.3247 17.4312 -956.896
15.9779 17.3647 -957.09698
16.448999 17.355499 -957.06
17.0397 17.3319 -957.14099
17.608601 17.3104 -957.24402
18.796301 17.2764 -957.44702
21.071501 17.2022 -957.836
23.424601 17.149799 -958.508
24.024599 17.1409 -958.66101
24.6332 17.111799 -958.836
28.925301 17.0249 -960.48102
36.348598 16.944901 -964.83899
37.202801 16.957899 -965.54303
-20.4578 20.0718 -973.34003
-17.9669 19.7904 -970.25897
-14.4706 19.508101 -966.711
-10.2677 19.2052 -963.69897
-9.8082895 19.1626 -963.43201
-9.3801298 19.129101 -963.15503
-8.9237099 19.0975 -962.883
-7.97754 19.028099 -962.27301
-6.47717 18.9625 -961.62598
0.73638898 18.4956 -958.56299
3.26563 18.3741 -957.84003
5.4465299 18.2535 -957.66901
9.5273399 18.0916 -956.98102
11.0261 18.044701 -956.87799
13.8499 17.919001 -956.96002
14.3575 17.9202 -956.91901
15.9567 17.8547 -957.04102
16.534901 17.8307 -957.12903
18.842199 17.743999 -957.48401
19.409201 17.7244 -957.53101
22.959999 17.645901 -958.479
23.437401 17.6241 -958.49701
24.054701 17.6257 -958.67902
28.337999 17.5163 -960.24701
29.638901 17.5173 -960.86499
30.3258 17.491899 -961.22998
37.901402 17.4622 -966.09302
-23.284201 20.889299 -977.74402
-22.8792 20.8486 -977.08002
-19.604799 20.490999 -972.19897
-14.3442 20.013901 -966.90503
-10.7247 19.740101 -963.98499
-10.2231 19.701 -963.74701
-6.4624 19.441 -961.62
0.74334699 19.0037 -958.55798
1.9776599 18.941601 -958.526
4.7093501 18.808701 -957.40002
5.27142 18.797899 -957.40198
5.81708 18.7631 -957.38898
10.5497 18.548401 -956.93799
11.0811 18.534901 -956.93903
15.9816 18.355499 -957.052
17.037001 18.326599 -957.10602
17.736799 18.2953 -957.367
23.532801 18.1313 -958.59497
24.110399 18.1152 -958.729
24.7071 18.1106 -958.89099
29.655001 18.020399 -960.86298
40.058201 17.996799 -967.86603
-25.433701 21.7605 -982.90802
-23.568001 21.4457 -978.58398
-23.2722 21.4265 -977.77802
-20.3452 21.107201 -973.57397
-18.6658 20.908199 -971.41699
-15.2504 20.5917 -967.59802
-14.3864 20.5091 -966.84198
-12.6633 20.3936 -965.302
-10.7393 20.242599 -963.95099
-10.2077 20.204399 -963.78003
-9.34869 20.133101 -963.14203
-2.17377 19.6994 -959.46899
3.2553101 19.3813 -957.75299
13.3674 18.9468 -957.01398
13.8261 18.9319 -956.88098
16.0219 18.8557 -957.08002
-26.426901 22.504 -985.94501
-22.4189 21.870399 -976.65399
-19.962999 21.5763 -972.89099
-19.5285 21.5355 -972.36902
-15.2764 21.1369 -967.55798
-14.6613 21.0956 -967.44
-14.3599 21.039101 -966.85797
-13.9183 21.005699 -966.52197
-10.6813 20.7759 -964.03497
-10.1135 20.718 -963.90601
-9.2744102 20.6569 -963.27399
-4.5882001 20.4718 -960.737
-1.07257 20.1234 -959.26099
0.376892 20.068199 -958.78802
3.00543 19.9048 -958.22998
3.3508301 19.9079 -957.87598
4.7177701 19.867901 -957.328
13.2839 19.4695 -956.875
14.4002 19.435801 -956.89899
17.7458 19.3342 -957.31299
-23.0394 22.517 -978.23901
-22.667 22.493 -977.53601
-19.535 22.120001 -972.36902
-16.901199 21.8671 -969.65399
-15.9995 21.767401 -968.70898
-15.5693 21.721701 -968.24298
-15.1748 21.7125 -967.71198
-14.3289 21.618401 -966.92499
-11.055 21.351101 -964.47498
-10.6486 21.329901 -964.06
-10.0933 21.2899 -963.89801
-9.7129498 21.255501 -963.51898
-6.79529 21.052999 -961.93103
-6.4523902 21.0753 -961.52197
-5.9927402 21.0033 -961.35901
-5.3473501 21.0179 -961.29999
-4.5647001 21.003901 -960.56799
-1.09033 20.7117 -959.18799
0.768372 20.577801 -958.495
13.3356 20.0441 -956.90601
13.8492 20.0415 -956.82599
14.4504 19.982 -956.95203
16.6173 19.910999 -957.13
17.1859 19.913799 -957.20898
17.7941 19.878 -957.35303
18.8584 19.838499 -957.39099
19.412201 19.8267 -957.43402
21.7778 19.776899 -958.04999
24.7386 19.700701 -958.85999
27.7507 19.6607 -959.91699
-22.544901 23.0585 -977.776
-19.4289 22.694099 -972.552
-18.9811 22.6325 -972.09802
-18.556 22.5851 -971.58398
-14.6136 22.2155 -967.487
-12.4414 22.0404 -965.59497
-11.4913 21.9541 -964.89801
-11.0865 21.9266 -964.40302
-10.5996 21.8836 -964.08899
-10.136 21.8507 -963.83899
-9.7373695 21.8204 -963.45697
3.0471201 21.032101 -958.24402
3.4846799 21.007 -958.01001
4.8945899 20.949499 -957.55902
5.49121 20.9139 -957.59998
5.9309702 20.889 -957.43903
11.174 20.681801 -956.914
13.9753 20.557501 -956.98401
14.4836 20.5394 -956.94501
15.5466 20.5165 -956.99103
16.0811 20.5007 -957.06
16.667101 20.469101 -957.19202
17.197599 20.4555 -957.21997
17.812901 20.444201 -957.34601
19.462999 20.383699 -957.45801
21.8256 20.3323 -958.08698
22.381201 20.330999 -958.21503
23.004499 20.295099 -958.41101
23.5993 20.2868 -958.578
24.781799 20.2665 -958.883
25.449699 20.257999 -959.13898
27.946301 20.2202 -960.16803
28.4104 20.214199 -960.22803
29.861099 20.185699 -961.06598
35.232101 20.1618 -964.20001
-10.5536 22.4303 -964.14801
-6.27917 22.1429 -961.72998
-5.4334102 22.0907 -960.98999
-1.00195 21.832001 -959.25702
0.44787601 21.723801 -958.81897
4.8821998 21.528601 -957.50098
13.8454 21.1621 -956.76801
14.468 21.1224 -956.88098
16.086901 21.0674 -957.039
16.7201 21.0469 -957.224
17.3193 21.0382 -957.34998
18.972799 20.981701 -957.46899
19.557199 20.973499 -957.55603
20.122801 20.9452 -957.64899
21.871799 20.9111 -958.11401
22.339001 20.893 -958.12097
23.0089 20.8804 -958.38501
23.632401 20.896999 -958.586
24.3433 20.857401 -958.89502
24.861099 20.832701 -958.97699
25.4781 20.826599 -959.14801
27.264999 20.788601 -959.776
28.625401 20.7624 -960.52002
29.827499 20.766001 -960.99103
31.907499 20.7271 -962.117
34.537998 20.740101 -963.711
36.004902 20.7283 -964.797
38.998001 20.785101 -967.211
-14.5715 23.3176 -967.56897
-11.4119 23.049 -964.96002
-10.0273 22.9568 -963.94
-5.8357501 22.6628 -961.50702
-1.0058 22.362 -959.23401
2.1066301 22.1667 -958.55798
3.1068101 22.1073 -958.27399
5.5487099 22.025101 -957.63
7.0854502 21.944099 -957.38702
10.3104 21.794001 -957.13501
14.0062 21.672001 -956.94598
14.5319 21.6735 -956.93298
15.1396 21.644199 -957.05798
16.1374 21.5993 -957.08698
16.673 21.5821 -957.13202
17.2104 21.5856 -957.15698
17.8526 21.563999 -957.33301
18.568899 21.519699 -957.61102
18.987101 21.520901 -957.46399
19.5898 21.4897 -957.57501
20.2117 21.480301 -957.724
20.6863 21.4893 -957.70599
21.307899 21.464001 -957.92902
21.928499 21.441401 -958.15997
22.5217 21.4244 -958.35199
23.077 21.424101 -958.44202
24.311001 21.384701 -958.84003
25.553499 21.357 -959.23602
27.367701 21.321199 -959.88599
28.533001 21.3097 -960.34998
29.245899 21.3032 -960.742
29.858299 21.3169 -960.99298
30.5229 21.3174 -961.33099
31.2381 21.2838 -961.76001
31.9056 21.278999 -962.10602
34.625198 21.2757 -963.84302
36.044601 21.2584 -964.86298
37.576401 21.280199 -966.06897
-19.247601 24.2878 -972.85797
-9.9490995 23.423599 -964.052
-9.1588697 23.386 -963.31799
-7.6729102 23.2778 -962.57202
-6.70715 23.2078 -961.96802
-6.19348 23.1464 -961.88202
-0.48858601 22.816 -959.07898
0.92071497 22.7348 -958.591
3.5053101 22.5905 -957.94
4.6683302 22.544399 -957.91901
7.5323501 22.4328 -957.16302
13.4023 22.189699 -956.88501
13.9203 22.1919 -956.815
14.6678 22.128 -957.10602
15.126 22.124201 -957.02002
16.2078 22.0804 -957.15198
17.254499 22.066299 -957.19299
17.7908 22.071899 -957.21301
18.4676 22.018299 -957.44397
19.5823 21.994499 -957.534
20.244699 21.994699 -957.74103
21.370701 21.93 -958.00098
22.5128 21.913099 -958.297
23.094101 21.909599 -958.43903
23.6322 21.8983 -958.521
24.8566 21.884199 -958.91602
28.0394 21.8424 -960.23798
28.58 21.7985 -960.40601
35.303001 21.761 -964.30402
37.595901 21.7561 -966.10199
39.6917 21.8932 -967.76801
-20.037201 24.8818 -974.20203
-11.3359 24.0499 -965.06403
-10.0732 23.952499 -963.85901
-9.5908203 23.906099 -963.59302
0.94470203 23.2372 -958.59003
3.5950899 23.065201 -958.034
5.0760498 23.0215 -957.68201
5.60992 23.0016 -957.64697
8.0364399 22.8806 -957.01898
13.454 22.6612 -956.93103
14.0805 22.651199 -957.01099
14.5723 22.6141 -956.93799
15.1738 22.6064 -957.08197
15.6071 22.6012 -956.97101
16.735901 22.557199 -957.14099
17.3242 22.551201 -957.263
17.881599 22.536501 -957.323
19.0243 22.513599 -957.45203
21.3825 22.438 -957.98999
23.0644 22.412201 -958.37201
23.742599 22.368 -958.65302
30.6047 22.2764 -961.422
31.9636 22.2679 -962.14203
39.102001 22.3454 -967.36401
-19.190599 25.2778 -972.987
-14.5395 24.8009 -967.57703
-14.1378 24.7822 -967.151
-11.3295 24.5315 -965.073
-10.9596 24.5054 -964.54498
-10.4067 24.445 -964.32501
-10.0008 24.421301 -963.94702
-6.2396898 24.146601 -961.69202
0.68695098 23.7148 -959.04901
2.2074001 23.628201 -958.646
3.66119 23.568199 -958.10303
10.8183 23.240601 -957.02698
13.4251 23.16 -956.84399
13.9948 23.132799 -956.86902
16.226601 23.044701 -957.12299
16.7721 23.0256 -957.172
18.013399 23.000401 -957.47998
19.133101 22.9701 -957.59003
19.6423 22.963699 -957.56403
23.759001 22.862 -958.65302
25.615101 22.8412 -959.23602
31.2843 22.779301 -961.763
35.383202 22.7701 -964.37299
36.1614 22.773199 -964.98798
-25.8284 26.9058 -987.83801
-25.3937 26.7969 -986.89899
-21.601299 26.1113 -976.953
-14.5115 25.331301 -967.63098
-14.0389 25.280701 -967.27698
-12.2445 25.1374 -965.841
-9.4899302 24.910101 -963.71997
-9.0639 24.861099 -963.42603
-5.73456 24.6131 -961.539
1.06244 24.2073 -958.72998
3.67395 24.065001 -958.091
6.15485 23.9505 -957.56598
10.29 23.7778 -956.97101
13.5043 23.658899 -956.927
14.0967 23.617701 -956.96899
14.6771 23.6054 -957.03497
17.3626 23.5396 -957.24298
17.944 23.5182 -957.35699
23.2229 23.3878 -958.534
23.796101 23.3696 -958.68402
24.3853 23.349199 -958.83398
-19.155001 26.3312 -973.09198
-14.8537 25.869801 -968.16699
-9.93396 25.4585 -964.02802
-9.4232798 25.418501 -963.81201
-8.0869102 25.300699 -962.89001
-7.5890498 25.2535 -962.63599
-6.6209102 25.2013 -962.07501
-5.77002 25.092501 -961.52197
-5.2165499 25.092899 -961.16602
-4.2961998 25.1229 -960.70599
-0.28570601 24.7778 -959.27502
1.04431 24.7089 -958.65601
3.65643 24.574301 -958.02301
9.8090801 24.3032 -956.99701
10.8289 24.262699 -956.99701
23.2299 23.8878 -958.53198
23.8822 23.898199 -958.77899
29.3575 23.8391 -960.802
-23.218 27.465099 -981.22198
-22.5037 27.3384 -979.58301
-15.2457 26.424999 -968.68298
-14.7355 26.3932 -968.35797
-14.3828 26.351 -967.79999
-10.7963 26.032 -964.73102
-10.364 26.003099 -964.33197
-9.8439302 25.9687 -964.15002
-8.9874296 25.8897 -963.51398
-5.1773701 25.619101 -961.21399
-4.3113999 25.5861 -960.703
-1.23926 25.3876 -959.58099
0.183411 25.287399 -959.06201
2.32532 25.1581 -958.71399
3.65186 25.1063 -958.00299
4.06494 25.085199 -957.737
6.1349502 24.993099 -957.47198
10.3366 24.802601 -956.95801
14.1367 24.6654 -956.95502
14.6796 24.634399 -956.95203
16.318701 24.583799 -957.14697
17.401199 24.5765 -957.23999
25.037901 24.425501 -959.00897
-21.797899 27.7994 -978.09302
-18.2283 27.3228 -972.17401
-17.7302 27.2815 -971.87
-14.348 26.916599 -967.883
-13.4924 26.833 -967.07501
-11.6526 26.665001 -965.58301
-10.7863 26.6077 -964.73199
-10.3083 26.5581 -964.401
-9.9270601 26.538799 -963.99799
-9.41681 26.498699 -963.77002
-8.9819298 26.456499 -963.47498
-6.5496202 26.288 -962.13202
-6.0183101 26.2505 -961.95697
-4.7631798 26.122601 -961.06702
-4.1954298 26.087299 -961.00098
2.3396001 25.737499 -958.70203
3.2153299 25.6793 -958.21899
4.6345801 25.6089 -957.69702
11.4899 25.306 -957.08099
13.5925 25.240801 -956.95203
14.0653 25.2162 -956.828
14.7231 25.1996 -956.99103
24.4529 24.975599 -958.83899
25.094801 24.943899 -959.08301
28.767401 24.912201 -960.513
-22.4496 28.4877 -979.83197
-15.1324 27.5695 -968.86499
-14.6931 27.513201 -968.41302
-13.4306 27.404301 -967.16302
-11.155 27.2027 -965.28198
-10.6095 27.1632 -964.966
-9.8341103 27.0851 -964.13202
-9.3056602 27.048599 -963.927
-6.0403399 26.807699 -961.84601
-4.6799898 26.795601 -961.125
0.15496799 26.4123 -958.94702
2.3371 26.2931 -958.65399
3.2318699 26.2703 -958.20898
3.62921 26.2356 -957.90802
13.6293 25.794001 -956.97699
14.2057 25.798 -956.992
14.7026 25.7691 -956.922
16.3965 25.6975 -957.17999
16.912001 25.701799 -957.20898
17.4606 25.673 -957.24298
18.056 25.6516 -957.37
18.6677 25.6206 -957.513
23.3221 25.527201 -958.57599
23.8629 25.5478 -958.66101
25.784401 25.497601 -959.35303
29.476 25.4725 -960.92798
30.907 25.4562 -961.71301
-15.0801 28.1518 -968.94299
-14.1705 28.0553 -968.125
-10.2037 27.698799 -964.50299
-9.8110399 27.6584 -964.12402
-8.8238497 27.6064 -963.69501
-4.20081 27.224001 -960.72803
1.14789 26.9347 -958.69501
1.63416 26.8953 -958.51703
3.21948 26.800699 -958.14203
3.6823699 26.783199 -957.961
5.7867999 26.682699 -957.71002
11.0296 26.4485 -957.11401
11.4011 26.4342 -956.89301
11.9734 26.4237 -956.91901
14.2822 26.339701 -957.05499
15.8838 26.2904 -957.12903
16.3381 26.2852 -957.07001
17.007 26.267099 -957.31
18.0578 26.2439 -957.34698
18.6686 26.2167 -957.48297
19.356001 26.197599 -957.70099
22.717899 26.1236 -958.34497
23.330601 26.1203 -958.55298
24.531799 26.0877 -958.90198
25.0893 26.099199 -959.01001
29.582899 26.0434 -961.03998
30.223 26.0431 -961.36102
30.954901 26.037901 -961.784
31.538 26.052299 -962.00403
37.195702 26.082001 -965.98798
-11.1073 28.3034 -965.28003
-10.1504 28.2293 -964.59601
-5.0974102 27.860001 -961.242
1.24414 27.458799 -958.78198
3.3737199 27.3253 -958.35199
5.1926298 27.251101 -957.59302
5.7280302 27.2421 -957.565
13.6929 26.9044 -956.99103
14.1455 26.8974 -956.83398
14.7917 26.868299 -956.98499
15.3139 26.856899 -956.99902
15.8333 26.8258 -957.01898
16.3946 26.82 -957.12903
17.542101 26.8095 -957.31097
18.0793 26.7929 -957.36102
18.6968 26.752399 -957.479
19.9044 26.7271 -957.71503
20.4515 26.708401 -957.77399
20.9723 26.711201 -957.81299
21.687799 26.6896 -958.151
22.1061 26.669399 -958.12097
22.711901 26.6766 -958.31097
23.361601 26.6747 -958.55701
