# .PCD v0.7 - Point Cloud Data file format
VERSION 0.7
FIELDS x y z
SIZE 4 4 4
TYPE F F F
COUNT 1 1 1
WIDTH 1598
HEIGHT 1
VIEWPOINT 0 0 0 1 0 0 0
POINTS 1598
DATA ascii
-16.622 -65.094902 -983.50201
-8.4813995 -65.179703 -978.54797
-7.9647498 -65.197601 -978.32202
-6.96454 -65.225899 -977.80402
-4.52491 -65.292999 -976.74402
-3.4470501 -65.343597 -976.50702
-2.8965099 -65.367897 -976.32703
-21.6516 -64.611504 -988.25201
-17.109501 -64.547798 -983.69598
-14.8868 -64.502502 -981.75
-14.3882 -64.529602 -981.38
-11.4701 -64.5578 -979.46802
-9.0339203 -64.594002 -978.414
-7.4813099 -64.657097 -977.71198
-7.01475 -64.6604 -977.49701
-2.4140601 -64.817902 -975.966
-26.4286 -64.281601 -994.60602
-25.987499 -64.258301 -993.71997
-25.6005 -64.228897 -993.15802
-22.1528 -64.062599 -988.401
-21.6887 -64.066299 -987.75098
-16.7148 -63.970001 -982.96198
-13.9186 -63.958 -980.75403
-4.6231999 -64.180397 -976.30701
-2.4607501 -64.263 -975.64301
2.2375801 -64.486702 -974.64502
-22.6569 -63.4986 -988.53003
-19.104601 -63.4231 -984.69202
-18.162901 -63.398602 -983.94397
-11.9938 -63.4202 -979.28302
-8.5865898 -63.487099 -977.65802
-7.0953202 -63.525002 -976.90503
-6.6444502 -63.533001 -976.71698
-3.03738 -63.675301 -975.703
-2.4918301 -63.688301 -975.40002
-2.0019901 -63.696899 -975.29797
-1.55299 -63.706699 -975.125
2.1736701 -63.900398 -974.44202
7.58637 -64.210197 -974.03802
-15.4861 -62.837799 -981.16302
-14.4974 -62.8741 -980.61102
-4.6822901 -63.069199 -975.77399
1.57179 -63.331902 -974.18201
2.1317201 -63.365299 -974.10797
7.52703 -63.6637 -973.81799
8.63204 -63.7267 -973.84302
9.1192503 -63.782299 -973.78101
13.1626 -64.0336 -974.11902
13.78 -64.1054 -974.21698
23.3612 -64.914497 -977.14001
-12.0566 -62.312 -978.70801
-4.72962 -62.505901 -975.35199
6.8961101 -63.0536 -973.44501
11.304 -63.3396 -973.60699
19.68 -64.007401 -975.495
-3.1574399 -62.0271 -974.60303
1.47427 -62.217499 -973.48798
13.0168 -62.934399 -973.48999
18.2971 -63.328899 -974.64801
32.999001 -64.854599 -982.58398
33.7313 -64.968903 -983.17999
-6.3579998 -61.324299 -975.08099
-3.7741499 -61.4324 -974.354
-2.7112999 -61.494499 -974.16101
0.82986999 -61.666401 -973.15302
7.89148 -62.058899 -972.64801
11.1102 -62.259102 -972.75299
12.3354 -62.345798 -972.88397
13.5194 -62.415401 -973.03198
25.1873 -63.4506 -977.11401
31.3111 -64.113998 -980.961
-8.8423901 -60.703701 -976.12903
-7.3330698 -60.730701 -975.21997
-4.3777199 -60.867298 -974.112
-1.84632 -60.9641 -973.45697
1.8844301 -61.157398 -972.82098
5.52143 -61.335201 -972.44501
6.1040401 -61.352699 -972.36298
8.3368196 -61.473999 -972.38702
13.4414 -61.865601 -972.74402
-18.8449 -60.040298 -982.48999
-18.358999 -60.015301 -982.14502
-17.4114 -60.064999 -981.32898
-16.9597 -60.026699 -980.896
-15.6709 -60.071602 -979.72302
-14.6804 -60.046398 -979.03998
-14.1864 -60.048901 -978.87598
-12.7042 -60.0588 -977.72803
-9.93297 -60.1273 -976.172
-8.8939505 -60.142502 -975.638
-8.3680696 -60.171902 -975.51801
7.8032999 -60.924 -972.14203
13.414 -61.276699 -972.55402
18.010599 -61.629398 -973.41803
-23.827999 -59.571701 -987.56299
-22.919001 -59.537102 -986.47101
-21.5842 -59.5285 -985.047
-18.8913 -59.465199 -982.18903
-13.7678 -59.493999 -978.08398
-23.3932 -58.990002 -986.638
-22.028601 -58.959801 -985.211
-21.6098 -58.973301 -984.76898
-19.9007 -58.888901 -982.75702
-19.4116 -58.8894 -982.16998
-18.9587 -58.916599 -981.94598
-16.6745 -58.894199 -979.89099
-13.8182 -58.915298 -977.89099
-10.4979 -58.987499 -975.771
-16.7276 -58.342499 -979.60498
-4.3986902 -58.664299 -973.78699
-22.5779 -57.828499 -984.89099
-21.7129 -57.816601 -983.85303
-19.0417 -57.7943 -981.21698
-16.7395 -57.7943 -979.43103
-11.9104 -57.867699 -976.66199
-9.4110298 -57.931499 -975.38898
13.4609 -59.0751 -972.34698
-14.3101 -57.298302 -977.85498
-9.4109898 -57.372501 -975.25098
-7.3967299 -57.463001 -974.44
-6.9553399 -57.4692 -974.29797
-3.8855901 -57.580101 -973.25098
0.75380403 -57.787899 -972.25299
1.86629 -57.845001 -972.12799
2.4242899 -57.873798 -972.05103
6.6617398 -58.1147 -971.72601
7.23558 -58.141399 -971.89502
7.8032098 -58.182499 -971.86603
-12.3286 -56.775101 -976.49402
1.26938 -57.298302 -971.98199
1.8179801 -57.305698 -972.01703
2.3935399 -57.3381 -971.78802
6.6286001 -57.602001 -971.55603
7.7744598 -57.657001 -971.49402
8.2996502 -57.658798 -971.40503
13.3743 -57.9986 -971.81403
25.5821 -58.9715 -975.854
-3.9408 -56.513901 -972.69
-2.8679399 -56.570801 -972.526
-1.9288599 -56.605999 -972.26599
2.8543899 -56.841702 -971.32599
7.16606 -57.0909 -971.271
8.2404699 -57.1632 -971.28003
13.337 -57.4967 -971.59198
18.613501 -57.9006 -972.85498
34.782501 -59.482601 -981.36401
-12.8498 -55.696499 -976.45099
-9.4877005 -55.789299 -974.61298
-7.94661 -55.835201 -974.01599
-7.4841399 -55.869099 -973.77301
-7.0297999 -55.866901 -973.42401
-3.4361601 -56.0117 -972.466
-2.43086 -56.040199 -972.271
0.657637 -56.194901 -971.44299
2.3097301 -56.272301 -971.34497
2.82043 -56.313202 -971.15997
5.4065499 -56.431499 -971.026
6.5455198 -56.520302 -970.92297
7.12114 -56.543598 -971.01099
7.7011499 -56.570499 -971.039
12.695 -56.8993 -971.26001
13.2872 -56.922901 -971.43701
-14.8833 -55.1008 -977.48199
-12.8561 -55.1315 -976.17603
-11.9803 -55.149799 -975.60797
-10.0438 -55.2122 -974.64301
-4.0030599 -55.425999 -972.46301
-3.46401 -55.443401 -972.224
-2.92432 -55.434898 -972.00403
-2.45929 -55.4814 -971.97498
0.050451301 -55.571301 -971.35699
4.2242599 -55.795399 -970.78802
5.3527398 -55.867699 -970.875
-26.6709 -54.625801 -988.41602
-23.588699 -54.554798 -984.79602
-22.661301 -54.533401 -983.81702
-19.564699 -54.505901 -980.76099
-17.1968 -54.5317 -978.80499
-13.885 -54.572102 -976.48499
-12.4315 -54.5751 -975.62799
-10.5773 -54.652901 -974.50598
-9.04601 -54.688599 -974.09998
-7.0988998 -54.737202 -973.14301
-4.5626602 -54.844101 -972.22101
-2.9667499 -54.8922 -971.88397
0.0299701 -55.035099 -971.17798
0.58845901 -55.077499 -971.08002
2.2464399 -55.1422 -970.88702
2.7349801 -55.1805 -970.84998
5.8812299 -55.3508 -970.474
-26.2409 -54.0578 -987.88898
-21.7948 -53.973099 -982.62701
-21.3808 -53.954201 -982.17297
-20.069901 -53.9422 -980.89697
-19.604 -53.947701 -980.56702
-18.6131 -53.933998 -979.62402
-16.7959 -53.953201 -978.23602
-14.9191 -53.979698 -976.80402
-10.113 -54.101002 -974.245
-9.5824604 -54.1306 -974.06201
2.2168801 -54.581799 -970.59802
-27.063801 -53.504799 -988.88898
-25.0327 -53.436901 -985.91699
-21.8179 -53.423698 -982.41498
-21.4137 -53.401699 -981.922
-20.0914 -53.407101 -980.64899
-17.230301 -53.405399 -978.25201
-14.976 -53.411098 -976.61298
-12.0604 -53.465302 -974.87701
-11.1623 -53.481499 -974.23297
-9.61695 -53.537399 -973.86298
-5.69943 -53.689701 -972.11298
0.524216 -53.965401 -970.65802
-30.083401 -53.086201 -993.19397
-28.399401 -53.0056 -990.716
-27.5357 -52.959301 -989.49402
-21.456301 -52.844002 -981.76898
-19.1535 -52.838902 -979.659
-17.267401 -52.854801 -978.159
-12.562 -52.9151 -974.67499
-12.1478 -52.939499 -974.53101
-9.1259699 -53.0005 -973.15698
-5.2061 -53.184399 -971.90302
-4.6594901 -53.195999 -971.67401
5.8063998 -53.668201 -969.78699
-24.599001 -52.3311 -984.80798
-23.676701 -52.300201 -983.85999
-21.8699 -52.294201 -982.01801
-21.471901 -52.304298 -981.51801
-19.1637 -52.281799 -979.35699
-16.502001 -52.284901 -976.77899
-13.5483 -52.3577 -975.05499
-12.6141 -52.374401 -974.453
-12.1878 -52.373001 -974.23798
-11.2832 -52.387501 -973.71399
-10.7865 -52.412899 -973.46399
-9.19979 -52.473499 -972.89697
-7.6363702 -52.532799 -972.49298
-6.7392101 -52.5625 -972.05499
-2.64979 -52.705299 -970.74701
-2.20189 -52.7286 -970.61298
-0.0973152 -52.846401 -970.33899
1.00981 -52.893101 -970.18799
-15.603 -51.775799 -976.01599
-14.5834 -51.810799 -975.42798
-12.6372 -51.839901 -974.349
-8.6985197 -51.9548 -972.35602
-6.7676501 -52.014702 -971.724
-4.70857 -52.110298 -971.14301
-0.124722 -52.331902 -970.21301
0.42809701 -52.342999 -970.09998
2.5729899 -52.4412 -969.71997
4.5858202 -52.508701 -969.32202
6.8726602 -52.662601 -969.34497
7.4271102 -52.685299 -969.39502
10.0041 -52.818802 -968.99799
-10.3206 -51.341 -972.75598
-7.2845998 -51.415298 -971.565
-2.6657801 -51.6422 -970.41699
1.51638 -51.8428 -969.73602
5.71134 -52.039101 -969.117
6.2741599 -52.076 -969.047
6.8516798 -52.122898 -969.19299
11.1292 -52.3769 -969.22601
18.5492 -52.840401 -969.88397
23.384501 -53.209301 -971.51898
-7.35008 -50.920502 -971.22198
-4.7485199 -51.055901 -970.77197
-0.16232701 -51.216301 -969.70398
0.915245 -51.2943 -969.48401
6.2485299 -51.557899 -968.87402
6.8028898 -51.590599 -969.01501
23.337601 -52.6964 -971.211
24.6537 -52.8064 -971.77698
-7.3889499 -50.366901 -970.94897
-4.7706099 -50.485298 -970.435
0.35307601 -50.717499 -969.49103
0.91657299 -50.740898 -969.29901
1.45532 -50.787102 -969.33899
5.6428099 -50.980598 -968.80499
6.2004499 -51.025101 -968.90399
7.3320498 -51.086601 -968.823
14.2752 -51.507702 -968.521
18.494499 -51.766499 -969.30902
19.0481 -51.818001 -969.65302
23.289 -52.123798 -970.95099
-19.8283 -49.5364 -978.50598
-17.0261 -49.555099 -976.27502
-16.1686 -49.5877 -975.62598
-15.1494 -49.618198 -975.06
-14.6343 -49.630699 -974.75598
-8.3215399 -49.794102 -971.27899
-3.7282901 -49.979698 -970.17499
-3.1923101 -49.992298 -969.92401
-0.76930499 -50.109798 -969.32898
0.320476 -50.1614 -969.26202
0.88848799 -50.1959 -969.12903
2.46222 -50.2551 -968.98602
2.93063 -50.2771 -968.77197
4.4665999 -50.341599 -968.53998
9.8591995 -50.640701 -968.12
11.0638 -50.711201 -968.41998
-22.5137 -49.0117 -980.86603
-21.6527 -48.982899 -979.91498
-19.833 -48.971298 -978.28101
-16.622299 -49.008598 -975.711
-16.167601 -49.039799 -975.31097
-15.6704 -49.063499 -975.16699
-11.8546 -49.1404 -972.88098
-5.9748302 -49.314098 -970.23602
-4.8355899 -49.387901 -970.08698
1.40556 -49.6777 -969
-22.494301 -48.442402 -980.612
-22.082899 -48.4128 -980.172
-21.6642 -48.414398 -979.63202
-21.2377 -48.408199 -979.14398
-20.816299 -48.409901 -978.83801
-20.348 -48.410999 -978.43799
-19.360701 -48.4291 -977.59497
-11.427 -48.595901 -972.36298
-4.8624902 -48.841499 -969.948
-4.31672 -48.870399 -969.82703
-2.7790401 -48.9132 -969.48499
-2.3187799 -48.9146 -969.28497
-0.28372499 -49.0163 -968.90302
2.8908701 -49.197601 -968.39203
-22.082199 -47.886002 -979.95502
-20.8382 -47.896599 -978.724
-15.7237 -47.941299 -974.73999
-14.1834 -48.001499 -973.76703
-32.5448 -47.6703 -996.47302
-26.445499 -47.397999 -985.099
-25.668501 -47.378502 -984.06097
-24.789101 -47.3629 -982.927
-24.397301 -47.340199 -982.31702
-23.4673 -47.333099 -981.01801
-22.9984 -47.324001 -980.62799
-21.2647 -47.334702 -978.80902
-20.8276 -47.317001 -978.45697
-16.673 -47.397499 -975.19202
-11.9144 -47.468601 -972.21698
-6.0349002 -47.679501 -969.46301
-2.81967 -47.8386 -969.08801
5.4966202 -48.245701 -967.758
-22.1182 -46.780399 -979.672
-21.284901 -46.785301 -978.58698
-19.9023 -46.8172 -977.47302
-17.966801 -46.8311 -976.17902
-17.1042 -46.8619 -975.34399
-16.2584 -46.861301 -974.539
-15.8215 -46.874599 -974.07202
-13.2323 -46.931801 -973.02197
-12.3589 -46.930801 -972.32202
-8.9104605 -47.040298 -970.62598
-7.49821 -47.097301 -969.91699
-3.8573999 -47.237999 -969.19
-2.8510001 -47.3027 -968.95398
7.6669202 -47.825199 -967.40198
-17.9713 -46.312698 -976.052
-17.526699 -46.3083 -975.43701
-16.700001 -46.3307 -974.789
-7.5253801 -46.595501 -969.81299
6.0105801 -47.197701 -967.30499
8.5871801 -47.301102 -966.90002
18.882799 -47.970501 -968.32098
-19.437201 -45.727402 -976.82098
-3.8843701 -46.190201 -968.82501
-2.8966801 -46.236 -968.61603
2.303 -46.4617 -967.56799
2.76882 -46.500401 -967.40698
3.24404 -46.533501 -967.28699
7.1098299 -46.717701 -967.02502
24.957199 -47.9133 -970.23602
-10.5126 -45.417999 -970.76099
-8.0014696 -45.4958 -969.72699
-2.90007 -45.7225 -968.43103
-0.98610097 -45.7668 -967.55499
1.2436399 -45.919201 -967.63501
8.0444403 -46.2523 -966.888
13.4728 -46.5368 -966.62097
16.917 -46.772301 -967.17102
23.661301 -47.277199 -969.52301
-11.0367 -44.870701 -970.83899
-9.5045004 -44.9161 -970.258
-4.9756799 -45.065701 -968.65601
-3.92398 -45.130901 -968.38098
1.2306499 -45.373299 -967.401
5.3692498 -45.584599 -967.03101
8.5000801 -45.677799 -966.26001
12.9163 -45.998501 -966.237
16.2542 -46.174801 -966.63202
17.496 -46.280399 -967.22198
29.3512 -47.162399 -971.71698
-20.499001 -44.084301 -976.685
-15.3147 -44.203499 -973.23401
-12.8581 -44.287601 -971.72198
-6.5959802 -44.465099 -969.04797
-6.0692 -44.482399 -968.85199
-4.9866199 -44.5177 -968.479
-3.41839 -44.608101 -968.08502
-2.9386201 -44.629101 -967.98798
-2.5048699 -44.6493 -967.80402
-1.03929 -44.6903 -967.18201
0.079277404 -44.701302 -967.026
10.6543 -45.271999 -966.04901
16.8339 -45.6451 -966.55103
17.444599 -45.6917 -966.73999
24.217899 -46.233299 -969.21198
-21.8855 -43.534401 -977.75
-21.0382 -43.514099 -976.72101
-20.023701 -43.549198 -976.26202
-17.187099 -43.632401 -974.44702
-15.3219 -43.655998 -973.04102
-12.451 -43.716702 -971.28003
-11.0711 -43.773499 -970.43597
-10.5307 -43.790401 -970.25299
-3.44396 -44.066399 -968.013
-2.0632901 -44.1101 -967.54602
1.5523 -44.263802 -966.39697
11.1462 -44.7869 -965.71301
16.7824 -45.1134 -966.26599
-24.884701 -43.033401 -981.47699
-23.9531 -43.001301 -980.46997
-17.6005 -43.056801 -974.42102
-16.3447 -43.095699 -973.47198
-12.4844 -43.175201 -971.22498
-11.0954 -43.229301 -970.479
-10.056 -43.244999 -969.95502
-9.5448303 -43.280102 -969.59802
-6.6224899 -43.391899 -968.63501
3.49821 -43.821602 -965.70398
-28.7377 -42.499901 -986.54901
-26.562099 -42.4842 -983.40503
-25.766001 -42.484402 -982.27698
-24.4431 -42.460899 -980.901
-16.3346 -42.525398 -973.10199
-15.8662 -42.562901 -973.08301
-15.3503 -42.561501 -972.64301
-14.8808 -42.580299 -972.46503
-13.8609 -42.599998 -971.80603
-12.4929 -42.6688 -971.03101
-12.0556 -42.6586 -970.63
-10.5792 -42.714199 -969.92297
-7.0946102 -42.827499 -968.69098
-5.6005101 -42.908001 -968.35999
-25.779699 -41.9105 -982.20502
-23.5151 -41.898399 -979.65698
-17.643299 -41.973598 -974.08099
-17.2201 -41.989101 -973.62701
-16.7852 -41.9837 -973.19098
-16.3762 -41.982601 -973.18402
-15.3744 -42.019402 -972.61102
-12.4935 -42.095299 -970.742
-8.9741697 -42.1991 -969.492
-7.5528898 -42.254501 -968.651
-26.177099 -41.375599 -982.56097
-21.781601 -41.3857 -977.70398
-20.947901 -41.388199 -976.85699
-17.238001 -41.4226 -973.48602
-16.8118 -41.448898 -973.17499
-15.3868 -41.458401 -972.224
-12.0434 -41.5756 -970.38501
-5.0904899 -41.852402 -967.71399
-4.0551801 -41.873501 -967.495
0.36337799 -42.045601 -965.73199
-16.3974 -40.948502 -972.82001
-12.4552 -41.052399 -970.56897
-12.032 -41.066101 -970.32501
-10.0408 -41.128899 -969.61298
-8.5104904 -41.196301 -969.06403
-5.62955 -41.2687 -967.63898
2.8803699 -41.644501 -965.09998
4.4667802 -41.7225 -965.00897
10.4638 -42.0355 -964.85901
29.7323 -43.353001 -970.34601
-12.0287 -40.496201 -970.17401
-7.6052799 -40.668999 -968.13898
-5.6560102 -40.763599 -967.69299
-4.0948901 -40.811401 -967.21997
-0.71115899 -40.908401 -965.39899
8.1821804 -41.393902 -964.53003
9.2719002 -41.413601 -964.57898
12.7183 -41.648701 -964.836
13.2149 -41.654701 -964.841
18.3263 -41.973499 -965.15503
29.674601 -42.814201 -970.28601
-6.20153 -40.233501 -967.599
-5.1365399 -40.248901 -967.24298
1.9339401 -40.547199 -964.953
4.4684901 -40.681999 -964.69098
6.1774702 -40.758598 -964.85303
9.8167496 -40.951401 -964.41498
11.002 -40.9986 -964.58301
11.6019 -41.023701 -964.44
13.1998 -41.154099 -964.70001
13.6825 -41.164001 -964.77301
18.8139 -41.502102 -965.229
-7.1950598 -39.6385 -967.75299
-2.8001299 -39.787102 -965.65198
-1.3295 -39.834 -965.30298
0.323441 -39.9245 -965.03998
1.8971601 -39.993801 -964.79199
8.14538 -40.337399 -964.28699
9.22997 -40.364101 -964.14301
11.5609 -40.5126 -964.36401
15.9548 -40.781601 -964.98401
20.552099 -41.084202 -965.64099
21.939899 -41.161701 -966.45502
-24.5105 -38.682201 -979.74701
-21.4007 -38.708302 -976.44501
-17.235701 -38.793499 -973.203
-16.812799 -38.798302 -972.76501
-15.8672 -38.822701 -972.08801
-12.935 -38.902599 -970.45398
-12.4952 -38.9053 -970.14899
-10.0717 -38.994099 -968.875
-8.07866 -39.0644 -968.02502
-7.64323 -39.071201 -967.76099
-0.79352897 -39.337601 -964.909
-0.242204 -39.353699 -964.90601
1.38989 -39.445202 -964.73499
3.8608699 -39.539299 -964.409
7.1761098 -39.726398 -964.258
7.6602001 -39.753101 -964.21503
8.1435003 -39.769501 -964.06702
11.5583 -39.963299 -964.30902
13.168 -40.064899 -964.38397
24.4445 -40.790298 -967.43903
-17.2346 -38.2631 -972.88702
-16.816 -38.242802 -972.63098
-15.3816 -38.275902 -971.84802
-11.1094 -38.440399 -969.16803
-10.6053 -38.4333 -969.03302
-9.0752602 -38.500198 -968.38098
-7.6379299 -38.5443 -967.62799
-7.2112098 -38.573101 -967.461
-2.8046401 -38.6992 -965.29401
-1.3484401 -38.788502 -964.909
2.3359001 -38.920502 -964.36499
4.9652801 -39.072399 -964.086
6.6544099 -39.1577 -964.08899
-23.5842 -37.6049 -978.48798
-22.220501 -37.629002 -977.05402
-21.8262 -37.6185 -976.66998
-20.9851 -37.616001 -975.84601
-17.643 -37.705799 -973.117
-17.236 -37.702099 -972.82501
-16.820801 -37.720299 -972.552
-15.8785 -37.7327 -971.87701
-15.3814 -37.735901 -971.56
-11.6366 -37.861099 -969.32098
-7.6726098 -38.014599 -967.60101
-7.2339201 -38.0438 -967.28699
-2.36166 -38.170502 -965.03101
-32.587502 -37.1092 -990.73999
-25.8498 -37.0201 -980.74597
-24.968901 -37.056198 -979.74701
-20.991301 -37.0909 -975.71997
-19.146601 -37.125401 -973.87799
-17.2365 -37.173599 -972.63898
-16.375999 -37.171101 -971.92499
-12.5054 -37.294102 -969.61102
-11.6471 -37.3284 -969.22101
-8.1142702 -37.469898 -967.60199
-0.81195199 -37.7211 -964.65399
-28.814899 -36.512901 -984.81403
-24.992599 -36.506699 -979.68903
-21.428801 -36.559898 -975.96002
-17.2453 -36.6245 -972.50098
-16.395201 -36.653198 -971.95801
-15.8997 -36.6623 -971.58197
-15.3935 -36.687901 -971.31598
-7.6942501 -36.922001 -967.22498
-7.2698202 -36.9459 -967.03302
-30.0732 -35.9552 -986.59003
-21.8347 -36.006302 -976.18298
-21.413401 -35.983101 -975.638
-17.2395 -36.088402 -972.375
-16.8244 -36.0877 -971.95001
-15.9049 -36.125099 -971.45099
-12.0949 -36.221401 -968.97101
-11.1448 -36.266499 -968.57202
-10.6396 -36.293598 -968.48297
-8.14223 -36.3908 -967.33099
-0.805875 -36.667 -964.60797
2.2890999 -36.819 -963.72601
-11.6612 -35.741001 -968.78699
-11.1577 -35.765499 -968.59302
-7.7258101 -35.899799 -966.96198
-7.2775898 -35.907398 -966.81598
-6.7978802 -35.907101 -966.45001
-3.33658 -36.0392 -964.742
-2.8736401 -36.053001 -964.49902
-0.83563298 -36.139099 -964.28302
-0.30518499 -36.144001 -964.26501
0.79300803 -36.225101 -964.12097
3.79269 -36.348202 -963.41602
4.3788099 -36.376301 -963.5
7.1603899 -36.548401 -963.71899
9.2204905 -36.652802 -963.46399
10.3858 -36.691601 -963.71198
10.9567 -36.726398 -963.74597
15.8742 -37.030201 -964.09003
22.439899 -37.436798 -965.60797
23.077 -37.477798 -965.82501
-3.34287 -35.5308 -964.85602
-2.4157701 -35.4958 -964.34198
-0.85298699 -35.582298 -964.08899
0.770661 -35.723202 -963.85498
2.7406499 -35.793301 -963.375
3.2590899 -35.823399 -963.479
4.97472 -35.890701 -963.39301
5.5129199 -35.927898 -963.51099
6.1180401 -35.947899 -963.72601
7.1701102 -36.0284 -963.61603
7.65979 -36.058201 -963.58899
10.3428 -36.183102 -963.39301
12.0862 -36.268299 -963.52802
12.6139 -36.302898 -963.61603
23.079901 -36.9547 -965.69299
-2.8857999 -35.011902 -964.26898
-1.9635 -35.059898 -964.10303
-0.86802697 -35.138901 -964.02698
2.26192 -35.2635 -963.43201
4.9714999 -35.391899 -963.396
9.1924105 -35.5975 -963.14001
11.4844 -35.7132 -963.28302
12.0721 -35.773602 -963.26398
22.3843 -36.366501 -965.31897
23.680401 -36.439999 -965.71802
-13.0042 -34.148998 -969.276
-11.6798 -34.156101 -968.33801
-11.1771 -34.204899 -968.19897
-4.3633299 -34.435501 -964.74902
-3.3668001 -34.4814 -964.45398
-2.9061999 -34.509602 -964.16302
0.179011 -34.6418 -963.63397
2.2888899 -34.736301 -963.46002
9.1732502 -35.0797 -962.99799
10.884 -35.1721 -963.01599
11.4766 -35.208199 -963.17499
22.3589 -35.839401 -964.992
27.246401 -36.177299 -967.07397
37.596401 -36.953701 -973.33398
-15.4341 -33.500198 -970.50299
-12.1292 -33.623001 -968.40302
-11.1864 -33.667099 -968.18201
-7.7406502 -33.777302 -966.38397
9.1450901 -34.535702 -962.86902
9.7140598 -34.5746 -963.02502
10.2988 -34.607101 -962.95203
12.5496 -34.715099 -963.04401
15.2549 -34.866901 -963.24902
-26.660999 -32.752998 -980.83197
-26.254999 -32.762501 -980.25098
-25.855301 -32.751999 -979.57703
-13.944 -33.013 -969.60999
-13.442 -33.028801 -969.21002
-11.6966 -33.1077 -968.16302
-10.6737 -33.138802 -967.77399
-8.1787004 -33.204601 -966.57599
-7.3144898 -33.251301 -966.06201
-3.3761799 -33.415501 -964.25201
-25.879299 -32.208698 -979.63098
-21.013 -32.287701 -974.487
-20.5289 -32.297699 -973.96997
-20.059999 -32.3176 -973.66699
-17.6817 -32.3591 -971.69897
-17.282101 -32.377602 -971.48901
-16.4221 -32.412899 -970.77502
-12.5676 -32.505501 -968.48199
-12.1452 -32.516201 -968.271
-11.6765 -32.5466 -967.927
-7.7522402 -32.708302 -966.245
-2.9210801 -32.9198 -964.005
-28.3836 -31.669701 -983.04199
-17.287701 -31.861799 -971.44202
-16.8615 -31.861 -971.00098
-15.9287 -31.882099 -970.50598
-12.5869 -32.000999 -968.54999
-10.694 -32.0755 -967.46899
-7.7516298 -32.1521 -966.021
3.25966 -32.6315 -962.92499
-26.252899 -31.1252 -979.84998
-17.2864 -31.32 -971.31799
-16.8584 -31.3391 -970.94702
-16.414301 -31.3377 -970.61401
-15.9419 -31.3377 -970.396
-11.1913 -31.5224 -967.60797
-7.3094001 -31.6413 -965.66498
-21.4436 -30.6563 -974.45502
-20.542999 -30.702801 -973.828
-16.408899 -30.8039 -970.42999
-13.021 -30.930599 -968.414
-11.7018 -30.9443 -967.63702
-7.3158498 -31.1024 -965.54999
1.8018301 -31.483801 -962.91498
3.7751501 -31.5872 -962.677
4.32761 -31.615499 -962.51202
-17.7075 -30.2502 -971.31799
-15.9398 -30.2889 -970.12402
-12.5787 -30.4062 -967.97803
-11.7038 -30.450199 -967.61401
-7.3125901 -30.5937 -965.47498
-6.3557501 -30.6471 -965.25
-2.4114101 -30.771 -963.362
-0.32060999 -30.873301 -963.08099
0.78304899 -30.940001 -963.15802
4.3292499 -31.1159 -962.30798
4.8872099 -31.129 -962.302
6.5433898 -31.2421 -962.26898
7.5065398 -31.270599 -962.19501
11.9399 -31.4807 -962.203
15.1582 -31.659901 -962.39899
15.768 -31.6919 -962.59998
18.100401 -31.828699 -962.953
-2.8801 -30.247 -963.54999
-2.42084 -30.272499 -963.43701
-0.86352801 -30.3515 -963.06201
-0.32832599 -30.3958 -963.11298
0.75192398 -30.4226 -962.86499
4.3105302 -30.5823 -962.23102
4.8730698 -30.6145 -962.203
5.4125299 -30.6465 -962.27002
7.0367398 -30.7272 -962.11102
7.5187402 -30.719101 -962.04797
7.9900899 -30.7561 -962.06201
11.3583 -30.922501 -962.12402
12.4448 -30.976 -962.112
15.7613 -31.1644 -962.48999
22.1966 -31.5469 -964.039
24.034 -31.668301 -964.61798
27.676001 -31.8864 -965.92102
-6.8531299 -29.580999 -964.99597
-6.3457398 -29.600901 -964.79901
-3.34272 -29.7306 -963.716
-1.94375 -29.798401 -963.16998
0.75372499 -29.9356 -962.67297
3.7532699 -30.058001 -962.20801
9.6250496 -30.3316 -961.953
10.1985 -30.347099 -961.83197
14.5189 -30.5872 -962.05603
16.329901 -30.683201 -962.37903
18.0779 -30.7792 -962.633
21.548901 -31.000799 -963.53302
22.7967 -31.059401 -964.09497
23.4613 -31.078199 -964.07599
29.0382 -31.458 -966.328
-12.1523 -28.8599 -967.40802
-2.9022701 -29.204901 -963.31299
-1.96556 -29.241501 -963.07098
-1.4298 -29.2906 -962.922
10.1813 -29.819099 -961.61902
10.7414 -29.8687 -961.724
11.3343 -29.902201 -961.966
16.3188 -30.1663 -962.21198
18.587299 -30.2966 -962.63702
22.1525 -30.509701 -963.68103
22.779499 -30.548599 -963.66699
28.335501 -30.877899 -966.03003
-16.423 -28.1775 -969.82098
-11.7041 -28.3249 -967.15997
-5.3020601 -28.5772 -964.30701
-3.34916 -28.6644 -963.453
3.2286601 -28.903 -962.06097
5.3970199 -29.0509 -961.85797
11.3183 -29.355499 -961.63599
12.9103 -29.434 -961.69299
15.716 -29.577299 -962.01398
16.3097 -29.6255 -962.16602
18.0411 -29.710199 -962.526
-20.5352 -27.5096 -973.11603
-16.860901 -27.6367 -970.11798
-16.4214 -27.6497 -969.89301
-11.7236 -27.7969 -967.02899
-11.2088 -27.8118 -966.90503
-10.6926 -27.851 -966.51398
4.2893 -28.481001 -961.92401
-21.834299 -26.946899 -974.17102
-21.439301 -26.9554 -973.88898
-21.0072 -26.9545 -973.44299
-17.6982 -27.048401 -970.67297
-16.4147 -27.0868 -969.65399
-15.9512 -27.1145 -969.45502
-11.7033 -27.260099 -966.84198
-11.2105 -27.2834 -966.79199
-7.3295398 -27.430799 -964.83197
-30.042101 -26.264299 -984.50702
-25.826799 -26.3437 -978.41498
-23.128901 -26.3983 -975.59698
-21.427099 -26.4221 -973.72101
-16.409401 -26.574301 -969.52399
-9.1716404 -26.8304 -965.802
-21.4249 -25.901199 -973.64801
-20.9834 -25.897301 -973.19397
-20.535 -25.936899 -973.013
-16.404301 -26.0476 -969.51599
-15.9235 -26.061001 -969.25098
-11.6954 -26.2064 -966.58698
-11.2033 -26.225 -966.57703
-10.6929 -26.250799 -966.25201
-16.8372 -25.485399 -969.711
-15.915 -25.549101 -969.09003
-12.1569 -25.652 -966.84302
-11.7194 -25.664301 -966.78003
-2.82125 -26.031099 -963.13397
3.1545601 -26.301001 -961.32001
-11.7004 -25.1646 -966.573
-11.1939 -25.1896 -966.29999
-7.76928 -25.3146 -964.67499
-6.8708901 -25.355301 -964.23999
-5.8220201 -25.4118 -963.89203
-2.3626101 -25.5249 -962.78998
15.0472 -26.3531 -961.20502
-13.0143 -24.583599 -967.32001
-11.7044 -24.651699 -966.40198
-7.3284202 -24.8011 -964.31201
-2.8228099 -25.008301 -962.90198
-2.3624001 -25.014 -962.65601
-0.27794799 -25.126301 -962.38098
3.6965599 -25.300501 -961.23401
7.4437099 -25.485701 -960.96399
7.9021502 -25.5037 -960.729
8.9929304 -25.5249 -960.63202
10.13 -25.616899 -960.836
11.2896 -25.6362 -960.95801
12.3463 -25.6945 -960.93103
14.4344 -25.822701 -960.97699
15.641 -25.875999 -961.19897
17.9743 -25.9914 -961.60199
18.505301 -26.0137 -961.60303
22.036501 -26.2153 -962.63397
-11.6907 -24.1488 -966.31097
-2.81112 -24.4935 -962.776
-0.809488 -24.5975 -962.30701
2.2788999 -24.7232 -961.64502
10.6955 -25.136801 -960.72803
15.6392 -25.3927 -961.18701
17.447001 -25.476601 -961.41101
17.970301 -25.4897 -961.59497
18.4727 -25.51 -961.44
23.747999 -25.782101 -962.61298
28.7976 -26.0937 -964.711
-11.6819 -23.618401 -966.22101
-7.7469101 -23.773399 -964.33698
-1.8837301 -24.0317 -962.47699
-0.80683202 -24.065701 -962.19897
0.82177001 -24.134899 -962.008
9.5384302 -24.552999 -960.505
10.102 -24.5811 -960.58801
10.6839 -24.595699 -960.69397
11.2785 -24.6113 -960.66803
12.3438 -24.6696 -960.52502
12.8212 -24.7195 -960.66803
16.816601 -24.9079 -961.21997
23.1528 -25.2446 -962.37799
-20.9634 -22.7365 -972.72601
-15.9004 -22.913401 -968.65802
-15.4149 -22.9368 -968.52197
-12.1357 -23.0548 -966.34302
-11.6764 -23.0804 -966.11102
-7.76367 -23.2299 -964.354
-7.32336 -23.242599 -964.12701
-6.8626399 -23.285101 -964.05402
-5.8080301 -23.304199 -963.492
-2.37591 -23.4615 -962.49103
0.81300199 -23.6059 -962.02899
1.33823 -23.6257 -961.742
2.2990899 -23.6457 -961.38397
7.5121498 -23.886999 -961.01599
-19.996901 -22.2446 -971.85901
-17.6929 -22.3197 -969.85901
-12.9822 -22.485201 -966.84003
-12.1191 -22.522699 -966.25299
-11.6627 -22.539 -965.96698
-11.1693 -22.563101 -965.78802
-10.6716 -22.5912 -965.61603
-7.7554302 -22.714199 -964.284
-5.8143802 -22.772699 -963.552
-2.35831 -22.935101 -962.38599
-1.33878 -22.9837 -962.034
-0.80407298 -22.987101 -961.99597
2.28988 -23.149401 -961.271
-20.478901 -21.695101 -972.15601
-17.2435 -21.813299 -969.42401
-11.17 -22.0296 -965.67603
-7.7564402 -22.160999 -964.14899
-7.3042402 -22.208 -963.81403
-6.3235698 -22.2094 -963.513
-25.7502 -21.0065 -977.55402
-24.8923 -21.001499 -976.67401
-20.927999 -21.1488 -972.49902
-20.4576 -21.163601 -972.02301
-17.2348 -21.2663 -969.33099
-11.6549 -21.4666 -965.77698
-10.6636 -21.5291 -965.49799
-7.7488198 -21.622601 -964.10699
-2.3621199 -21.866301 -962.013
-29.917 -20.361099 -983.59302
-24.8785 -20.489201 -976.52502
-21.3503 -20.5837 -972.70502
-20.928699 -20.6131 -972.44299
-11.1485 -20.9762 -965.508
-7.3042498 -21.1378 -963.64301
-6.8435102 -21.132401 -963.54401
-20.4237 -20.0979 -971.88098
-17.258101 -20.182899 -969.047
-16.7875 -20.2145 -968.87903
-16.3361 -20.2229 -968.50897
-12.0999 -20.3932 -965.92297
-11.1573 -20.4077 -965.46301
-6.8467798 -20.5944 -963.52197
1.80594 -20.975401 -961.14203
-17.249701 -19.6875 -968.91803
-16.345301 -19.724001 -968.60699
-12.5235 -19.8908 -966.13599
-12.108 -19.9021 -966.026
-7.7342 -20.090799 -963.82599
-7.29425 -20.094299 -963.51599
-2.87429 -20.264799 -961.58002
2.2302201 -20.488001 -960.67401
7.5191102 -20.760099 -960.28003
-16.799999 -19.2006 -968.62903
-0.32196 -19.858 -961.05902
1.73557 -19.9702 -960.57098
2.18314 -20.0093 -960.58398
3.7365 -20.055599 -960.16302
4.8986301 -20.110201 -960.34601
7.5365 -20.250401 -960.41498
11.9276 -20.4496 -960.35199
12.923 -20.476999 -960.34802
15.7009 -20.621599 -960.64398
16.2833 -20.668501 -960.65302
20.610701 -20.8808 -960.72101
21.2411 -20.894699 -960.88501
23.588499 -21.0191 -961.32001
29.817499 -21.361601 -963.91998
7.0391898 -19.7206 -960.46503
8.5106897 -19.7591 -960.13501
9.0610304 -19.805 -960.20502
11.9317 -19.9237 -960.26501
12.4304 -19.961901 -960.32397
15.699 -20.119101 -960.64697
21.8724 -20.409201 -961.034
28.580099 -20.753401 -963.38702
-12.0852 -18.339701 -965.823
-2.86973 -18.731899 -961.48999
0.74561203 -18.8979 -960.85303
11.367 -19.372499 -960.07703
12.9209 -19.5016 -960.16998
21.252399 -19.862499 -960.87
23.119699 -19.9674 -961.33099
29.8276 -20.3314 -963.83301
-25.667601 -17.281799 -977.20898
-25.2561 -17.2878 -976.69202
-20.849501 -17.442801 -971.89697
-15.8209 -17.641701 -967.76703
-11.1232 -17.8503 -965.08301
-8.2620497 -17.912201 -963.23798
-2.83004 -18.1768 -961.45898
2.1980901 -18.4027 -960.15302
12.4408 -18.9032 -960.05701
12.9274 -18.923201 -960.09802
21.2507 -19.317801 -960.75299
-25.245899 -16.7796 -976.68903
-20.3783 -16.964899 -971.48199
-12.472 -17.267401 -965.83398
-8.23561 -17.4212 -963.28101
-7.7892499 -17.443199 -962.92297
12.4334 -18.394199 -959.92401
-20.844101 -16.4091 -971.96399
-20.377501 -16.4233 -971.487
-11.5931 -16.756001 -965.32397
-29.379499 -15.5749 -982.54401
-21.2386 -15.8623 -972.17297
-20.8305 -15.8824 -971.90302
-20.349701 -15.8778 -971.39801
-12.4597 -16.206301 -965.63599
-28.9506 -15.0334 -981.90997
-25.1954 -15.1767 -976.45801
-21.239201 -15.3476 -972.23102
-17.138 -15.4879 -968.64301
-16.3307 -15.4964 -967.71899
-11.5756 -15.7155 -965.08801
-21.2202 -14.7743 -972.13
-15.8505 -14.9992 -967.44702
-6.8212099 -15.3713 -962.43701
-5.8055201 -15.4329 -962.07001
-2.8248 -15.5473 -961.03998
-16.7022 -14.4727 -968.12299
-9.1148996 -14.7782 -963.79999
-3.2678699 -15.0318 -961.15802
-2.36464 -15.0682 -960.84302
4.3006701 -15.3646 -959.58002
12.949 -15.7702 -959.65802
-2.3536799 -14.551 -960.73901
2.2809 -14.7236 -959.69598
4.8428202 -14.8815 -959.26599
6.9736099 -15.0048 -959.15503
12.4729 -15.2177 -959.57397
15.1247 -15.3685 -959.70898
27.327499 -15.921 -962.23499
28.0432 -15.9765 -962.66998
2.25524 -14.2558 -959.69598
7.4663701 -14.5226 -959.19397
9.5765696 -14.586 -958.89099
12.4461 -14.7412 -959.58899
15.1258 -14.8557 -959.55701
15.7349 -14.8753 -959.88599
16.321301 -14.8906 -959.68103
18.054501 -14.9819 -959.92902
20.857901 -15.098 -960.74103
23.3151 -15.2538 -961.19501
30.450399 -15.5345 -963.44897
0.82167202 -13.6747 -960.19501
2.26337 -13.756 -959.77002
2.7248499 -13.7894 -959.54901
4.3243198 -13.8537 -959.362
6.99857 -13.9496 -959.24402
12.9391 -14.2181 -959.38
17.5077 -14.4374 -959.91803
18.053499 -14.4494 -960.03699
18.568399 -14.481 -960.03497
-21.1397 -12.1908 -971.89502
-20.7143 -12.2126 -971.625
-12.9778 -12.5476 -965.026
-2.7493601 -12.9784 -960.729
-0.77351397 -13.0653 -960.26898
0.83043402 -13.152 -960.125
1.81976 -13.169 -959.69897
3.70207 -13.296 -959.02502
7.95718 -13.4649 -958.841
21.4991 -14.0579 -960.742
-25.0662 -11.5003 -976.19897
-12.5374 -12.0314 -964.63501
7.4827499 -12.9268 -958.78198
14.5517 -13.24 -959.07202
-24.5914 -10.9886 -975.638
-23.695499 -11.0216 -974.70203
-7.2047501 -11.7295 -962.34497
-2.7544401 -11.9262 -960.67902
-21.120399 -10.5785 -971.61902
-8.0670099 -11.1783 -962.79901
-1.81399 -11.4678 -960.388
-21.173401 -10.0835 -971.04401
-20.7596 -10.0746 -970.81
-7.6230402 -10.6643 -962.51501
-25.841101 -9.2958603 -977.00098
-20.784901 -9.5469599 -970.60797
-20.305401 -9.5866404 -970.11298
-16.2757 -9.7271404 -966.96503
-8.0348701 -10.1066 -962.65399
-6.7093101 -10.1709 -961.96002
2.7841201 -10.6012 -959.19501
-20.3111 -9.0554504 -970.099
-17.098101 -9.1993504 -967.47198
-16.249399 -9.2387199 -966.86603
-2.7065799 -9.8601198 -960.59198
-0.72576803 -9.9453602 -959.98297
2.7964599 -10.0646 -959.073
3.7752299 -10.1356 -959.005
18.1096 -10.7696 -959.59698
-8.9559498 -9.05091 -963.25598
6.5451698 -9.7704697 -958.64502
8.55128 -9.8526402 -958.46997
12.405 -10.0126 -958.45099
16.385799 -10.1713 -959.23602
17.5786 -10.2475 -959.37701
18.096399 -10.2478 -959.64001
20.905199 -10.3899 -960.13202
-0.677396 -8.9307604 -960.14502
4.4070501 -9.1607304 -958.88599
14.5925 -9.6217203 -958.83197
15.2207 -9.6275101 -958.93597
16.394199 -9.6665697 -959.284
23.409 -9.9709501 -960.93298
34.595299 -10.4566 -965.36798
-11.435 -7.91431 -964.23602
9.67556 -8.8753796 -958.40698
10.2474 -8.8934898 -958.31097
12.9448 -9.0146103 -958.32898
13.4406 -9.0314598 -958.367
15.2307 -9.0980101 -958.992
16.407499 -9.14849 -959.23199
17.0023 -9.19415 -959.22998
17.5839 -9.2188702 -959.40997
21.540701 -9.3904896 -960.26898
22.182301 -9.40275 -960.37799
23.4181 -9.4687595 -960.77399
23.979099 -9.4791498 -960.841
30.195299 -9.7451601 -963.401
34.610802 -9.94526 -965.33801
-20.636999 -6.9337602 -970.75598
-13.6385 -7.2554898 -965.66998
-1.20002 -7.8510499 -959.755
1.92638 -7.9889398 -959.20801
12.4537 -8.4567499 -958.44299
-16.586901 -6.6325202 -967.104
-15.1692 -6.6895199 -966.23901
-13.6045 -6.7428498 -965.63702
-5.08325 -7.1540298 -961.20398
-0.65446198 -7.35921 -959.90503
2.8396101 -7.49681 -958.81897
-28.9242 -5.4433799 -982.422
-6.59866 -6.546 -961.59198
-20.948 -5.3267899 -971.297
-15.9908 -5.0588799 -967.00299
-12.212 -5.2564902 -964.47302
-5.55722 -5.5547299 -961.16199
-20.9139 -4.28478 -971.33002
-16.3999 -4.4924202 -967.30902
-15.5025 -4.5483298 -966.78003
-12.2044 -4.7023301 -964.55701
-7.44453 -4.9207602 -962.12701
3.4602399 -5.46878 -958.823
-11.3193 -4.2376399 -963.97101
-6.5363598 -4.4750099 -961.54401
-5.5117102 -4.5019999 -961.18103
8.1556702 -5.09934 -958.14203
18.218399 -5.5389199 -959.10999
-11.2913 -3.73171 -963.87903
0.055845499 -4.25705 -959.17102
3.9782701 -4.3893099 -958.56598
5.1122499 -4.4717002 -958.59302
7.7315402 -4.6055002 -958.52399
9.8528099 -4.68889 -958.52002
10.418 -4.7126398 -958.466
15.3379 -4.9043298 -958.63
16.516899 -4.9703798 -958.80103
18.2302 -5.0293398 -959.02698
22.2754 -5.1877799 -959.974
23.518299 -5.2447 -960.53802
24.0702 -5.2618699 -960.43701
28.9072 -5.47508 -962.026
-2.5118899 -3.62233 -959.93298
11.6393 -4.24088 -958.74402
13.1694 -4.31007 -958.255
13.664 -4.33181 -958.49597
15.34 -4.4122701 -958.70599
17.1159 -4.4659801 -958.91101
18.2295 -4.5149398 -959.16998
19.8069 -4.5870299 -959.31
22.2722 -4.67906 -960.034
22.9165 -4.70083 -960.09698
23.533199 -4.73526 -960.19598
28.3323 -4.91119 -962.13599
43.7873 -5.4348602 -972.26501
1.21983 -3.2909701 -959.75098
10.4883 -3.68068 -958.44702
12.7098 -3.7563 -958.33002
13.1853 -3.78088 -958.41602
15.9549 -3.9133999 -958.78302
16.544399 -3.9242699 -958.71503
17.128201 -3.95469 -958.87598
18.264099 -4.01684 -958.90503
18.7593 -4.0192599 -959.05103
22.299299 -4.1711798 -959.92102
24.113701 -4.20997 -960.34601
27.7083 -4.36094 -961.77002
-16.323099 -1.9197 -967.32397
-15.3953 -1.9584399 -966.56201
-12.0882 -2.1433899 -964.55798
-7.3632498 -2.3380401 -961.914
-6.9282699 -2.3854499 -961.672
-0.409325 -2.7278399 -959.83502
2.6202099 -2.8429899 -959.29602
13.21 -3.23998 -958.34302
15.3886 -3.34428 -958.46802
15.9608 -3.3596201 -958.664
18.2626 -3.46103 -958.987
22.3064 -3.6222799 -959.80902
1.23454 -2.2383699 -959.77301
2.18328 -2.27736 -959.29199
10.5432 -2.6373999 -958.42297
-25.4361 -0.35631499 -976.88397
-25.056 -0.385842 -976.35199
-19.8493 -0.67189199 -970.43103
-16.264099 -0.857449 -967.26501
-12.0855 -1.06418 -964.40198
2.6500101 -1.77143 -959.08502
-24.171101 0.097751997 -975.30603
-20.2878 -0.107554 -970.789
-19.806 0.39452699 -970.505
-10.6518 -0.101099 -963.60498
-21.052999 0.983989 -971.73602
-20.239201 0.96867001 -970.87402
-12.0024 0.50802302 -964.48901
-2.28333 0.034933601 -960.271
1.32406 -0.103798 -959.57898
-11.9706 1.00106 -964.45001
-11.528 0.99294502 -964.24701
3.21908 0.31498301 -958.78198
5.8798299 0.202011 -958.58801
8.9784899 0.0548894 -958.271
18.889799 -0.35175201 -958.94098
9.44314 0.53656602 -958.30499
10.0887 0.49720901 -958.17297
13.3312 0.410896 -958.21503
19.4105 0.15704501 -958.974
21.8144 0.0609315 -959.53601
22.4491 0.034656901 -959.815
23.6861 -0.00300794 -960.16998
24.241899 0.00378501 -960.22498
24.7833 -0.046562601 -960.50201
29.8678 -0.21796399 -962.59698
1.3732001 1.40984 -959.55103
2.3573101 1.37409 -959.15601
10.647 0.98555601 -958.216
13.3603 0.88483602 -958.23602
13.8348 0.86539602 -958.19397
16.1105 0.78438097 -958.427
16.696301 0.77431297 -958.55798
21.8473 0.55986297 -959.46399
23.087999 0.556319 -959.94501
28.5704 0.35572699 -961.95801
29.226101 0.32778099 -962.17999
2.3794301 1.88164 -959.23401
4.8344898 1.78429 -958.69299
14.947 1.33233 -958.27002
15.5406 1.3054301 -958.35498
16.1343 1.2840101 -958.38
17.3272 1.23655 -958.56897
18.448999 1.19819 -958.65997
20.623699 1.11146 -959.18903
28.576799 0.86772102 -962.00299
29.257299 0.83383799 -962.29401
37.159401 0.60612798 -966.55902
-10.9979 3.0455 -963.78497
-2.6099899 2.6501999 -960.453
-2.1620901 2.6245799 -960.33801
4.25986 2.3505299 -958.60303
14.4073 1.90962 -958.12
22.511 1.59861 -959.75897
23.764601 1.5709701 -960.11603
29.264 1.38605 -962.19299
-20.489201 4.0956898 -971.38397
-16.4268 3.88449 -967.67999
-15.6053 3.8090401 -966.87598
-15.1254 3.77862 -966.58099
-11.419 3.5968101 -964.07703
-7.0266099 3.3789101 -962.17499
-24.730499 4.9272599 -976.91602
-24.3339 4.9133601 -976.18298
-16.408701 4.3863902 -967.65802
-15.5766 4.3302898 -967.09003
-10.4593 4.0551901 -963.62701
-24.283001 5.4251199 -976.50403
-16.3894 4.9140401 -967.70898
-15.508 4.86727 -967.11298
-9.9153996 4.5594201 -963.33698
-23.7703 5.9331198 -976.08398
-19.520399 5.6612701 -970.73999
-24.496901 6.5227799 -977.48199
-3.9865799 5.3260598 -961.172
3.4351799 5.0135398 -958.76001
-15.3667 6.4370298 -967.36798
-6.4472098 5.9506898 -961.91699
3.0083201 5.5089002 -958.87598
3.4475 5.5243902 -958.729
19.107901 4.8720002 -958.86499
-4.9412398 6.4050999 -961.31097
-1.98884 6.27209 -960.26703
14.039 5.57866 -958.10498
15.7275 5.5099401 -958.42102
22.054001 5.3140402 -959.47998
24.472601 5.2182298 -960.27399
25.026199 5.1855001 -960.48297
30.7616 5.04248 -962.849
0.00241046 6.6645899 -959.70599
4.4702001 6.44734 -958.76801
5.0915699 6.43993 -958.61401
10.9068 6.2129898 -958.08801
12.0569 6.1545801 -958.258
13.598 6.1011 -958.09198
14.5858 6.0425801 -958.20898
15.1835 6.0479898 -958.31702
16.342501 6.0156999 -958.34003
17.538401 5.9493098 -958.58099
22.071699 5.79351 -959.599
22.700001 5.7827301 -959.76703
27.498899 5.6558299 -961.27802
29.469601 5.6063499 -962.27301
0.0347693 7.1793499 -959.73401
4.47439 7.0219402 -958.65302
5.64747 6.915 -958.64099
10.9176 6.7125602 -958.15698
22.109699 6.3158598 -959.47601
23.358999 6.2782602 -960.008
28.180799 6.1361198 -961.77197
-9.6289501 8.2032604 -963.79102
0.58129799 7.6694398 -959.61603
6.1732798 7.4460802 -958.64099
15.233 7.0780702 -958.29102
21.5207 6.8869901 -959.39502
-16.032499 9.10289 -968.50299
1.69521 8.15448 -959.57098
3.14505 8.1054602 -958.953
-19.586201 9.8759203 -971.875
-19.135599 9.8495903 -971.42401
-0.93894798 8.8005695 -960.00201
-24.5271 10.8165 -978.75897
-19.9657 10.4152 -972.45898
-19.0807 10.3722 -971.43903
-15.9657 10.1608 -968.47699
-14.6455 10.0689 -967.33099
-10.5261 9.8347597 -964.39203
0.133976 9.2705698 -959.87799
-20.326401 10.981 -973.07397
-19.509899 10.9485 -971.95502
-15.0953 10.6436 -967.81403
-10.5205 10.3644 -964.60101
-10.4711 10.8737 -964.487
-9.4854403 10.826 -964.14801
-2.2274799 10.451 -960.53003
0.163862 10.3316 -959.75098
-15.4451 11.7076 -968.22101
-10.4494 11.3758 -964.62
3.1628699 10.682 -958.52802
5.1805201 10.5504 -958.35199
5.7272501 10.515 -958.21198
18.7691 10.0713 -958.34198
-5.7368398 11.6384 -961.69702
2.73265 11.2406 -958.83698
7.8592401 11.5267 -957.66199
8.7720499 11.4719 -957.40399
9.2813501 11.445 -957.41998
10.4091 11.3966 -957.51099
13.6298 11.2766 -957.39099
14.1148 11.2377 -957.349
16.370199 11.1757 -957.508
16.9722 11.135 -957.591
20.888201 11.037 -958.32501
-10.4433 12.9308 -964.28302
-1.34768 12.4281 -959.54102
3.12569 12.2259 -958.13599
3.58495 12.1838 -958.07898
8.2639999 11.9684 -957.22803
10.8947 11.8834 -957.20398
13.0983 11.8012 -957.03302
14.5946 11.742 -957.18402
16.3449 11.6921 -957.40503
21.4114 11.5115 -958.36298
22.046301 11.5175 -958.51099
23.312901 11.4874 -958.83899
25.028099 11.4207 -959.38
27.491501 11.3623 -960.19702
28.1535 11.372 -960.57599
-14.9546 13.7575 -967.66302
-10.4079 13.4932 -964.25
-2.2883101 13.012 -959.77502
-1.3873 12.9513 -959.22998
-0.92285299 12.9286 -959.23499
0.108361 12.8732 -958.89203
1.6751699 12.8154 -958.58698
5.1231198 12.6423 -957.71997
8.24436 12.5044 -957.15503
10.8823 12.4176 -957.14697
13.5661 12.3204 -956.987
15.7344 12.2442 -957.112
16.889299 12.2117 -957.35699
24.9981 11.9805 -959.164
-15.3692 14.3035 -968.03699
-24.0959 15.6309 -979.84497
-18.374399 15.0834 -971.26202
-6.2041602 14.2758 -961.32202
3.5652201 13.7637 -957.71301
-5.7718501 14.7511 -961.03198
-15.7631 16.455799 -968.06403
-10.8722 16.0945 -963.75201
-10.4477 16.084 -963.63501
1.72184 15.4242 -958.39801
-9.9303703 16.538401 -963.18298
4.6090102 15.7859 -957.46301
13.6564 15.4458 -956.87
15.8395 15.3828 -957.02197
16.4132 15.3816 -957.07703
9.8256397 16.0914 -956.75098
15.8718 15.9075 -957.00598
18.207001 15.82 -957.24902
19.2495 15.7826 -957.56201
22.150499 15.7374 -958.22699
24.5644 15.6794 -958.91302
28.191401 15.5805 -960.28699
35.4734 15.4823 -964.26599
3.2402401 16.874399 -957.92603
4.2199798 16.8267 -957.64899
5.2767901 16.7819 -957.39502
15.879 16.3986 -956.96802
19.7731 16.302 -957.59003
21.5483 16.231701 -958.04999
22.162201 16.219 -958.229
24.0397 16.1798 -958.67798
34.779701 16.032101 -963.77301
-10.7829 18.164 -963.961
-9.85888 18.091101 -963.42999
1.83585 17.471201 -958.48602
4.6813998 17.3109 -957.51703
13.2607 17.004801 -956.76099
13.7531 16.9893 -956.82599
15.9087 16.911501 -956.98297
17.0774 16.8783 -957.13098
18.7836 16.823299 -957.466
21.5851 16.7556 -957.88702
23.445299 16.7082 -958.40601
29.5723 16.599001 -960.841
1.8608201 17.9883 -958.47302
4.6916199 17.8596 -957.52899
18.8234 17.370399 -957.41101
-10.2664 19.163799 -963.73999
-9.7665701 19.1439 -963.349
-9.2904301 19.1185 -963.19501
0.82473302 18.5485 -958.53198
3.3095801 18.4433 -957.80499
15.9672 17.9604 -957.034
-14.3064 20.0135 -966.90698
-10.6662 19.7481 -963.91199
-10.2282 19.692499 -963.65997
-6.42206 19.4795 -961.52502
5.8847499 18.843399 -957.39801
-23.539499 21.3839 -978.51703
-18.6346 20.898199 -971.45697
-10.6403 20.2526 -964.01801
-10.1947 20.2262 -963.68903
-14.7039 21.079201 -967.49799
-10.6113 20.8013 -964.09802
-10.1718 20.738001 -963.82599
-9.1929398 20.7101 -963.24902
-23.064501 22.425501 -978.211
-15.4712 21.705099 -968.18298
-10.5809 21.312201 -964.12097
-10.1196 21.3067 -963.78699
-9.6447697 21.2549 -963.53497
-6.7554002 21.072901 -961.84601
-18.943501 22.521 -972.11603
-14.6248 22.117901 -967.53601
-10.5428 21.815701 -964.10999
-10.0948 21.7962 -963.83002
2.99547 21.059 -958.15002
3.45222 21.0609 -958.05402
4.8638501 21.021299 -957.61603
13.9277 20.641899 -957.01202
14.4168 20.628799 -956.94598
16.100401 20.5735 -957.10498
-1.03395 21.784901 -959.15503
0.46751899 21.6964 -958.82397
4.90342 21.51 -957.55701
14.4323 21.1392 -956.77698
16.701 21.0784 -957.25598
17.2987 21.061501 -957.37402
19.0142 21.0196 -957.50403
19.5079 21.0154 -957.48602
20.0338 20.9979 -957.59198
23.049101 20.9231 -958.33197
23.685101 20.924 -958.50403
24.8638 20.888 -959.06598
25.395599 20.886 -959.15399
29.8545 20.8367 -961.08002
-5.8304601 22.5639 -961.45697
3.0576899 22.094299 -958.24799
5.5550499 21.984501 -957.659
13.9655 21.677 -956.94501
14.475 21.653601 -956.91901
16.1497 21.593201 -957.00897
16.741301 21.5809 -957.10797
17.9102 21.5485 -957.41998
18.504499 21.5476 -957.54797
19.035 21.5326 -957.55798
20.617001 21.483101 -957.78003
22.4482 21.4566 -958.39099
23.078899 21.4296 -958.32898
24.325001 21.429501 -958.75403
28.533899 21.3682 -960.39502
29.1756 21.362301 -960.76398
30.5571 21.348101 -961.30298
-10.0022 23.35 -964.013
3.5332401 22.583401 -957.96198
16.1842 22.120501 -957.25403
18.5336 22.051201 -957.37201
23.1077 21.9632 -958.54498
39.615799 21.889299 -967.81799
3.5632999 23.116501 -957.94702
4.9906902 23.062201 -957.72803
5.6181898 23.057899 -957.68103
14.0345 22.723801 -957.05103
15.6074 22.6607 -956.90698
16.7974 22.6401 -957.16699
17.380501 22.645599 -957.24902
19.0975 22.580799 -957.49799
23.135401 22.4849 -958.37299
-19.135 25.183701 -972.98297
-10.3761 24.4328 -964.25403
-9.9396801 24.3908 -963.98102
-9.42904 24.901199 -963.74597
-5.6986799 24.6717 -961.508
6.1549301 24.0518 -957.547
-9.8594398 25.4708 -964.005
-9.3793497 25.4529 -963.77301
-4.2035499 25.109501 -960.66901
-10.6898 26.0555 -964.70502
0.138492 25.372601 -959.04797
-17.688101 27.2188 -971.80103
-10.2329 26.563101 -964.35901
-4.1641998 26.1432 -960.92902
-10.6193 27.0972 -964.89099
-9.77948 27.0193 -964.13702
-5.9941401 26.7665 -961.914
2.2893 26.3307 -958.56403
3.2758901 26.263201 -958.18799
13.712 25.8634 -957.008
14.6924 25.848 -956.96899
3.2937701 26.769199 -958.20697
3.75333 26.770901 -957.99902
10.9903 26.4499 -957.04498
14.2205 26.367201 -957.10999
15.8027 26.3153 -957.16901
16.3913 26.295099 -957.133
16.9709 26.290199 -957.30298
18.1625 26.2507 -957.35498
18.761801 26.254 -957.41998
22.702299 26.171 -958.362
23.3396 26.170099 -958.573
24.5812 26.150801 -958.91101
30.8668 26.1133 -961.81403
31.497 26.104401 -961.95099
5.2164502 27.203699 -957.54498
15.2499 26.846399 -956.987
15.83 26.823999 -957.10699
16.419201 26.823799 -957.15997
17.5902 26.775299 -957.32001
18.184299 26.771601 -957.349
18.7719 26.768101 -957.50702
19.82 26.735001 -957.72302
20.884701 26.7047 -957.75897
22.126101 26.684299 -958.18298
23.370701 26.694 -958.53101
23.988501 26.665199 -958.73297
24.6255 26.6499 -958.909
28.8619 26.637899 -960.72998
-10.1192 28.619699 -964.65002
3.8119099 27.804399 -957.93903
5.25493 27.708099 -957.59302
14.2728 27.3986 -957.065
16.4457 27.344999 -957.26099
17.030899 27.312901 -957.19
17.610201 27.294399 -957.258
18.2061 27.310101 -957.49701
19.336901 27.2789 -957.59497
29.5578 27.129999 -961.15198
30.9258 27.129101 -961.76599
-14.1197 29.4991 -968.31201
-5.0059299 28.799999 -961.28497
-0.659361 28.5424 -959.23499
2.3875599 28.4186 -958.61798
3.3918099 28.343399 -958.172
6.3727298 28.216999 -957.53003
6.8871002 28.1698 -957.42102
8.9714804 28.1061 -957.03497
17.0704 27.8542 -957.15503
17.652 27.860399 -957.41998
19.367901 27.817499 -957.78998
21.5516 27.775101 -958.01801
22.167 27.767 -958.19299
23.4235 27.733299 -958.64801
24.0357 27.7202 -958.74103
-18.299299 30.4694 -973.46198
-10.8624 29.752199 -965.59802
-8.6665697 29.5751 -963.95398
-5.8425002 29.382799 -961.93701
-4.9834499 29.3256 -961.47198
3.8615501 28.8456 -958.14301
4.8095498 28.778799 -957.77502
11.1077 28.569799 -957.19
13.8347 28.475599 -957.10602
-17.8241 30.9615 -972.922
-9.0939398 30.129499 -964.07703
-5.3886299 29.892799 -961.65802
-9.5376596 30.683701 -964.34399
0.43241599 30.1318 -959.35901
-18.915001 32.174198 -974.88
-13.9536 31.6203 -968.48401
-13.4964 31.5714 -967.95801
-9.9436798 31.2365 -964.74799
-9.5201302 31.238199 -964.46503
-6.16328 30.9512 -962.5
-5.3362799 30.917 -961.88
19.513 30.9401 -965.29797
41.4701 31.8848 -974.53101
1.1526099 36.419498 -983.18402
6.3948598 35.8484 -977.01501
5.2853198 36.905701 -977.30798
6.3997598 37.891602 -976.71899
4.28227 40.321201 -972.55298
4.7975001 40.247898 -972.51599
4.8558002 40.815701 -972.659
4.9053702 41.368599 -972.58099
5.4929299 48.461201 -969.37903
7.6134801 50.548599 -968.54199
8.0475101 51.5439 -968.08899
